ncols        161
nrows        31
xllcorner    -1996347.14233
yllcorner    -947627.974289
cellsize     1000.303962438272
-17.56195068359375 -21.6521453857421875 -25.224365234375 -25.6969757080078125 -27.3715972900390625 -31.1249542236328125 -33.3258819580078125 -31.64190673828125 -30.718292236328125 -32.1625823974609375 -33.946075439453125 -38.078216552734375 -51.1855621337890625 -60.8127288818359375 -61.5928192138671875 -66.833282470703125 -65.8959808349609375 -57.0781097412109375 -66.74005126953125 -73.7920684814453125 -85.05279541015625 -91.3999481201171875 -89.20050048828125 -91.3769378662109375 -88.654205322265625 -86.9856414794921875 -89.32061767578125 -92.8597564697265625 -90.2178802490234375 -84.2856292724609375 -81.794403076171875 -83.3846282958984375 -81.4781494140625 -79.708526611328125 -74.6116790771484375 -77.04901123046875 -87.5648193359375 -93.0052642822265625 -95.7818756103515625 -109.733062744140625 -117.355438232421875 -130.9205780029296875 -211.647735595703125 -245.95489501953125 -251.612274169921875 -241.870147705078125 -244.57122802734375 -322.773468017578125 -431.65594482421875 -533.83282470703125 -646.31396484375 -736.55096435546875 -822.70635986328125 -923.7216796875 -925.1490478515625 -935.6204833984375 -1019.5797119140625 -1039.1434326171875 -1031.978759765625 -1047.0166015625 -1062.2152099609375 -1056.7786865234375 -1035.031494140625 -1067.0699462890625 -1140.181640625 -1252.37548828125 -1367.5382080078125 -1583.2042236328125 -1868.094970703125 -2072.87158203125 -2289.05224609375 -2428.720947265625 -2493.99951171875 -2643.530517578125 -2774.146240234375 -2840.16796875 -2916.74169921875 -2993.83251953125 -3075.59228515625 -3158.45654296875 -3287.342529296875 -3390.776611328125 -3422.828369140625 -3427.995361328125 -3438.077392578125 -3458.971435546875 -3483.412353515625 -3512.80908203125 -3539.1337890625 -3560.966552734375 -3565.4716796875 -3549.41845703125 -3517.614501953125 -3475.552978515625 -3388.629150390625 -3251.4638671875 -3061.074951171875 -2854.31005859375 -2632.6181640625 -2408.326904296875 -2223.461669921875 -2012.11328125 -1882.3524169921875 -1855.7215576171875 -1871.856689453125 -1889.7618408203125 -1916.743896484375 -1950.05859375 -2023.55908203125 -2153.979248046875 -2285.60791015625 -2372.959228515625 -2463.687255859375 -2610.087158203125 -2695.635009765625 -2725.89892578125 -2759.35546875 -2787.67333984375 -2809.872314453125 -2841.6708984375 -2873.197265625 -2910.20068359375 -2956.193359375 -3006.056640625 -3057.137939453125 -3103.277587890625 -3148.892333984375 -3271.962158203125 -3388.71044921875 -3417.465087890625 -3434.2666015625 -3425.421875 -3421.75439453125 -3383.98388671875 -3312.026611328125 -3258.18701171875 -3189.923095703125 -3003.759033203125 -2815.409912109375 -2744.396484375 -2701.797607421875 -2664.9677734375 -2636.178466796875 -2620.668701171875 -2614.062255859375 -2603.01611328125 -2583.51806640625 -2564.638916015625 -2520.548583984375 -2481.722412109375 -2465.2861328125 -2448.298828125 -2434.095458984375 -2419.27685546875 -2404.931396484375 -2383.48095703125 -2363.001953125 -2343.472900390625 -2312.713623046875 -2251.102783203125 -2164.4033203125
-11.66690826416015625 -15.0819244384765625 -18.3311614990234375 -20.0797882080078125 -21.227630615234375 -22.2195281982421875 -22.4371490478515625 -21.1294097900390625 -21.97882080078125 -25.0672149658203125 -26.70550537109375 -25.8963775634765625 -31.2642364501953125 -40.610931396484375 -44.426422119140625 -50.3524169921875 -50.8556060791015625 -47.4996337890625 -53.280670166015625 -62.6371917724609375 -71.896514892578125 -80.5081329345703125 -88.92877197265625 -92.047088623046875 -88.8014984130859375 -87.8336639404296875 -94.279022216796875 -97.9975433349609375 -95.90618896484375 -84.861236572265625 -72.0827789306640625 -69.5690765380859375 -72.95062255859375 -72.1001129150390625 -71.4147186279296875 -72.406768798828125 -79.9045867919921875 -84.868896484375 -88.4970550537109375 -95.2890625 -103.67425537109375 -112.223175048828125 -150.282867431640625 -185.1798095703125 -193.80218505859375 -172.67352294921875 -184.87652587890625 -216.237640380859375 -292.165802001953125 -359.35845947265625 -478.52423095703125 -611.24188232421875 -709.8282470703125 -786.23687744140625 -775.82208251953125 -832.27947998046875 -955.6781005859375 -971.81884765625 -973.0740966796875 -1035.896484375 -1109.7608642578125 -1135.4271240234375 -1101.52880859375 -1104.486083984375 -1141.6260986328125 -1236.9742431640625 -1401.8521728515625 -1685.982666015625 -1964.93994140625 -2127.303955078125 -2201.21435546875 -2270.1298828125 -2367.248046875 -2520.90234375 -2630.329833984375 -2720.72509765625 -2850.65185546875 -2946.80859375 -3047.88671875 -3152.38330078125 -3278.395263671875 -3380.0439453125 -3409.068603515625 -3420.27978515625 -3433.427978515625 -3457.377685546875 -3481.97998046875 -3502.811767578125 -3525.322509765625 -3542.191162109375 -3539.50732421875 -3514.310546875 -3480.65234375 -3431.871337890625 -3336.22998046875 -3182.97412109375 -3021.63037109375 -2826.736572265625 -2597.12451171875 -2380.37939453125 -2164.817626953125 -1973.1748046875 -1842.4837646484375 -1820.368408203125 -1836.69384765625 -1866.3477783203125 -1907.3001708984375 -1942.248779296875 -2020.008056640625 -2169.095947265625 -2287.5615234375 -2407.982177734375 -2517.575439453125 -2642.6689453125 -2703.673583984375 -2720.830078125 -2742.09521484375 -2764.72900390625 -2787.1142578125 -2818.692626953125 -2850.345703125 -2883.40966796875 -2918.23828125 -2964.498046875 -3020.172607421875 -3077.867919921875 -3198.22021484375 -3353.923095703125 -3423.808349609375 -3400.405029296875 -3391.91552734375 -3349.1044921875 -3309.346435546875 -3253.081787109375 -3188.00439453125 -3163.750244140625 -3095.63232421875 -2903.053466796875 -2796.61083984375 -2749.924560546875 -2702.40087890625 -2656.25537109375 -2621.095458984375 -2603.80615234375 -2596.598876953125 -2584.557861328125 -2568.406005859375 -2545.54541015625 -2499.046630859375 -2468.7119140625 -2454.533935546875 -2440.267333984375 -2424.86669921875 -2409.033203125 -2392.738525390625 -2373.119140625 -2349.111328125 -2333.48779296875 -2309.109130859375 -2268.93115234375 -2200.982421875
-5.30728912353515625 -7.50763702392578125 -10.7532501220703125 -12.95401763916015625 -14.67751312255859375 -15.582427978515625 -15.20513916015625 -14.357574462890625 -16.1013031005859375 -19.3346710205078125 -21.7000274658203125 -21.7941131591796875 -23.212890625 -27.1222686767578125 -31.557037353515625 -35.99169921875 -37.3288726806640625 -35.743438720703125 -40.896728515625 -49.91534423828125 -57.400543212890625 -66.4279632568359375 -77.328582763671875 -88.2625274658203125 -93.732086181640625 -95.4163818359375 -97.8482818603515625 -97.396026611328125 -96.3087005615234375 -88.9775238037109375 -75.9595794677734375 -66.2611541748046875 -64.022247314453125 -66.598114013671875 -68.8811798095703125 -70.333404541015625 -73.021728515625 -76.743988037109375 -81.7748870849609375 -85.1366424560546875 -91.9969329833984375 -99.43524169921875 -122.0236968994140625 -166.15533447265625 -172.45281982421875 -138.13348388671875 -128.16082763671875 -107.0012969970703125 -133.1764373779296875 -176.495574951171875 -254.895538330078125 -352.547332763671875 -427.7672119140625 -510.16510009765625 -610.2581787109375 -732.24700927734375 -854.3275146484375 -876.15692138671875 -894.5751953125 -962.942138671875 -1076.9248046875 -1227.27490234375 -1299.0068359375 -1312.1595458984375 -1322.6031494140625 -1403.7977294921875 -1582.278564453125 -1808.8680419921875 -1971.916259765625 -1980.265625 -1989.097412109375 -2045.639404296875 -2161.553955078125 -2311.9951171875 -2429.38623046875 -2526.17431640625 -2685.509765625 -2852.62841796875 -3001.12451171875 -3122.572021484375 -3230.500732421875 -3315.316650390625 -3368.25537109375 -3390.0263671875 -3413.527587890625 -3447.11962890625 -3459.892578125 -3470.158935546875 -3489.89599609375 -3505.441650390625 -3499.240234375 -3462.3330078125 -3412.460205078125 -3360.070068359375 -3233.23291015625 -3108.036865234375 -2976.8125 -2769.4248046875 -2532.373779296875 -2275.53173828125 -2066.758544921875 -1896.50146484375 -1808.685546875 -1792.0767822265625 -1803.33251953125 -1829.699462890625 -1892.3779296875 -1946.522216796875 -2002.94970703125 -2125.677734375 -2252.934814453125 -2369.925048828125 -2487.2236328125 -2636.85986328125 -2692.580810546875 -2708.497802734375 -2729.656494140625 -2753.778076171875 -2781.32080078125 -2816.8759765625 -2853.683349609375 -2881.397705078125 -2913.521240234375 -2943.438232421875 -3027.410400390625 -3199.931884765625 -3364.330810546875 -3406.579345703125 -3364.80615234375 -3312.328857421875 -3274.781494140625 -3213.144287109375 -3167.63671875 -3144.967529296875 -3119.7216796875 -3107.420654296875 -3036.519287109375 -2871.679443359375 -2777.45703125 -2725.528564453125 -2682.646728515625 -2630.736328125 -2605.15625 -2585.89306640625 -2577.615234375 -2570.020751953125 -2552.71484375 -2526.7470703125 -2481.3583984375 -2461.836669921875 -2444.775634765625 -2426.322998046875 -2409.438232421875 -2392.64404296875 -2377.778564453125 -2356.005859375 -2336.814453125 -2317.9287109375 -2301.941162109375 -2276.081787109375 -2221.957275390625
2.1612548828125 -0.34783172607421875 -3.7620086669921875 -6.196136474609375 -8.68662261962890625 -10.97412109375 -11.056365966796875 -11.05503082275390625 -12.29386138916015625 -14.93900299072265625 -17.3250732421875 -17.04193115234375 -17.3753204345703125 -19.123992919921875 -22.941375732421875 -27.1263275146484375 -28.65509033203125 -28.6677093505859375 -33.2256011962890625 -39.8245086669921875 -47.6278076171875 -54.8927001953125 -64.0341033935546875 -81.32537841796875 -91.7537078857421875 -95.2646484375 -97.0892791748046875 -96.4771728515625 -94.32281494140625 -91.9410400390625 -85.8780670166015625 -72.376861572265625 -63.076507568359375 -63.3711090087890625 -65.7410125732421875 -68.4461517333984375 -70.40985107421875 -72.9035797119140625 -75.49078369140625 -78.961944580078125 -88.4625091552734375 -95.005340576171875 -117.5898590087890625 -176.188812255859375 -168.5526123046875 -115.3769378662109375 -104.131500244140625 -89.1771392822265625 -87.9207763671875 -107.722015380859375 -151.61181640625 -207.80914306640625 -268.929718017578125 -362.713714599609375 -504.36126708984375 -647.06500244140625 -726.0198974609375 -764.1063232421875 -793.673828125 -843.07000732421875 -963.503662109375 -1156.3310546875 -1355.7764892578125 -1448.0269775390625 -1521.715087890625 -1578.04443359375 -1644.1903076171875 -1752.7567138671875 -1799.804443359375 -1763.009521484375 -1808.738525390625 -1867.04931640625 -1983.892822265625 -2174.158447265625 -2368.46875 -2476.564208984375 -2651.953369140625 -2810.593994140625 -2957.914794921875 -3088.18603515625 -3169.838623046875 -3240.93603515625 -3303.86865234375 -3343.084228515625 -3388.122314453125 -3419.937255859375 -3421.140869140625 -3423.936767578125 -3438.27783203125 -3457.135009765625 -3443.493896484375 -3372.330810546875 -3308.166748046875 -3238.00048828125 -3129.389892578125 -3032.15966796875 -2904.2119140625 -2661.381103515625 -2369.792724609375 -2129.49169921875 -1942.4130859375 -1834.0435791015625 -1779.86962890625 -1775.5343017578125 -1790.9708251953125 -1805.9404296875 -1871.7266845703125 -1961.4150390625 -2004.2265625 -2085.242919921875 -2203.982421875 -2307.3505859375 -2428.566162109375 -2582.159423828125 -2669.847412109375 -2697.947021484375 -2725.57958984375 -2755.80126953125 -2786.49609375 -2829.88916015625 -2863.923095703125 -2898.894775390625 -2929.807373046875 -2973.56103515625 -3158.73681640625 -3345.8154296875 -3404.12890625 -3341.651123046875 -3258.635986328125 -3208.168701171875 -3180.962890625 -3152.28955078125 -3139.43359375 -3117.693359375 -3103.148681640625 -3094.44970703125 -3004.20166015625 -2862.003662109375 -2759.590576171875 -2695.067626953125 -2640.7255859375 -2610.1435546875 -2588.0732421875 -2568.924072265625 -2556.475830078125 -2553.81396484375 -2541.40185546875 -2507.597412109375 -2467.686767578125 -2450.400390625 -2430.2451171875 -2410.964599609375 -2394.456787109375 -2379.068359375 -2360.2763671875 -2339.34423828125 -2317.989013671875 -2295.69384765625 -2277.393310546875 -2253.765869140625 -2212.468994140625
11.398956298828125 7.89621734619140625 3.7139892578125 -1.050262451171875 -4.23067474365234375 -6.33454132080078125 -7.95014190673828125 -9.13153076171875 -9.91693878173828125 -11.796630859375 -13.54332733154296875 -12.85709381103515625 -12.66290283203125 -13.27994537353515625 -16.5163116455078125 -20.9621734619140625 -21.4562530517578125 -23.033538818359375 -28.1285247802734375 -32.5670928955078125 -39.921783447265625 -47.3046417236328125 -60.225494384765625 -79.4084625244140625 -89.2867431640625 -94.5074462890625 -96.6273193359375 -96.6868743896484375 -94.065704345703125 -89.7031097412109375 -85.8017425537109375 -80.2991943359375 -71.3459320068359375 -65.7782135009765625 -64.897918701171875 -66.8052825927734375 -69.0531768798828125 -70.1229400634765625 -71.88275146484375 -77.7826690673828125 -86.7589874267578125 -91.2665863037109375 -109.6464080810546875 -135.878997802734375 -122.90618896484375 -100.8340606689453125 -101.1824951171875 -93.3992462158203125 -85.2266998291015625 -83.508270263671875 -96.234222412109375 -135.114532470703125 -201.808685302734375 -291.3402099609375 -425.05218505859375 -540.1016845703125 -602.5484619140625 -653.320556640625 -686.5670166015625 -744.7708740234375 -812.8857421875 -932.2738037109375 -1131.924072265625 -1282.0758056640625 -1397.4957275390625 -1458.2049560546875 -1462.3365478515625 -1497.061279296875 -1545.2230224609375 -1550.1240234375 -1661.09423828125 -1831.22900390625 -2007.555908203125 -2261.140625 -2443.626708984375 -2541.9052734375 -2633.986328125 -2741.9677734375 -2903.73681640625 -3039.7998046875 -3121.0791015625 -3165.929931640625 -3225.179443359375 -3280.822998046875 -3326.667724609375 -3333.66796875 -3338.64013671875 -3351.9228515625 -3357.691162109375 -3372.44091796875 -3329.67236328125 -3231.081298828125 -3148.95263671875 -3103.384765625 -3018.142822265625 -2927.660400390625 -2748.8466796875 -2430.107421875 -2158.93115234375 -1950.611328125 -1845.7784423828125 -1800.1278076171875 -1758.638916015625 -1735.5020751953125 -1756.033447265625 -1785.56396484375 -1833.754150390625 -1893.381591796875 -1978.652587890625 -2080.68505859375 -2161.83984375 -2293.053466796875 -2403.18603515625 -2549.2841796875 -2664.99658203125 -2709.961669921875 -2734.265625 -2766.142333984375 -2803.9404296875 -2848.287353515625 -2894.450927734375 -2929.891845703125 -2964.634033203125 -3055.177490234375 -3255.703369140625 -3376.982421875 -3352.294921875 -3245.2314453125 -3150.82958984375 -3118.778564453125 -3132.802734375 -3136.89990234375 -3125.81689453125 -3096.767822265625 -3067.6669921875 -3049.63427734375 -2972.066650390625 -2856.251220703125 -2764.6318359375 -2685.12255859375 -2620.115234375 -2591.90771484375 -2569.827392578125 -2546.72216796875 -2531.786865234375 -2532.083740234375 -2518.251708984375 -2477.3671875 -2444.864501953125 -2431.066162109375 -2412.772705078125 -2394.910888671875 -2378.778564453125 -2362.02685546875 -2344.428955078125 -2321.7978515625 -2302.73974609375 -2277.46630859375 -2251.20654296875 -2220.403564453125 -2176.656005859375
21.10097503662109375 16.29700469970703125 9.6494293212890625 3.95778656005859375 0.43323516845703125 -2.6593780517578125 -3.95183563232421875 -6.22187042236328125 -7.84781646728515625 -9.40389251708984375 -10.08216094970703125 -9.07875823974609375 -8.29491424560546875 -8.9783935546875 -10.92575836181640625 -14.48751068115234375 -16.502655029296875 -19.4522857666015625 -23.9052276611328125 -27.23931884765625 -32.80316162109375 -44.139495849609375 -60.791748046875 -75.6409149169921875 -87.29315185546875 -92.93701171875 -97.053680419921875 -96.5826873779296875 -92.759307861328125 -87.79705810546875 -83.19317626953125 -80.3789215087890625 -75.7516632080078125 -71.1051483154296875 -67.8306427001953125 -65.997650146484375 -67.33404541015625 -68.7467193603515625 -74.4862823486328125 -79.930572509765625 -83.6288299560546875 -86.3018035888671875 -89.7999420166015625 -94.931060791015625 -94.919219970703125 -99.6314697265625 -101.1144561767578125 -95.1080474853515625 -83.3000030517578125 -77.304229736328125 -76.9932098388671875 -97.6483917236328125 -153.267364501953125 -255.698089599609375 -366.044952392578125 -449.91400146484375 -516.72613525390625 -575.2342529296875 -622.02655029296875 -675.71734619140625 -702.8319091796875 -753.14849853515625 -882.04840087890625 -992.2156982421875 -1088.5357666015625 -1215.177001953125 -1249.9483642578125 -1282.78369140625 -1356.9029541015625 -1445.2364501953125 -1672.878662109375 -1929.934814453125 -2111.667724609375 -2280.498046875 -2403.777099609375 -2433.307861328125 -2500.073974609375 -2687.648193359375 -2874.5078125 -3010.232666015625 -3080.549072265625 -3113.595947265625 -3156.672607421875 -3214.69091796875 -3244.807861328125 -3235.480712890625 -3226.12841796875 -3245.199951171875 -3229.2451171875 -3225.228271484375 -3170.86474609375 -3052.8388671875 -2997.63818359375 -2962.49560546875 -2885.215576171875 -2733.26513671875 -2455.697509765625 -2161.774658203125 -1945.07373046875 -1845.6639404296875 -1781.69677734375 -1746.314697265625 -1721.7540283203125 -1682.8883056640625 -1694.4149169921875 -1765.7542724609375 -1782.385009765625 -1805.1610107421875 -1914.89697265625 -2057.840576171875 -2140.16748046875 -2260.172607421875 -2404.185546875 -2535.5771484375 -2675.824462890625 -2732.72021484375 -2750.891845703125 -2788.577392578125 -2824.30126953125 -2874.459228515625 -2927.3310546875 -2976.422119140625 -3032.123291015625 -3124.155029296875 -3311.539306640625 -3365.863525390625 -3299.40576171875 -3184.858154296875 -3106.20751953125 -3088.9287109375 -3095.445068359375 -3105.4580078125 -3103.220703125 -3081.980712890625 -3045.300537109375 -3022.342529296875 -2949.16552734375 -2841.306884765625 -2753.00341796875 -2681.345703125 -2604.175537109375 -2577.322021484375 -2555.5263671875 -2527.551025390625 -2511.072509765625 -2503.7021484375 -2480.91552734375 -2444.65625 -2427.8994140625 -2415.4111328125 -2398.38671875 -2379.853271484375 -2361.40185546875 -2344.885986328125 -2324.915771484375 -2303.17236328125 -2286.071533203125 -2263.7939453125 -2235.119140625 -2195.292724609375 -2154.663330078125
30.1164398193359375 23.632415771484375 16.1149444580078125 10.2443389892578125 6.0816497802734375 2.9278106689453125 -0.6119842529296875 -2.7367401123046875 -5.297882080078125 -7.45011138916015625 -8.41493988037109375 -6.580474853515625 -6.01538848876953125 -5.60744476318359375 -6.5869598388671875 -8.88626861572265625 -12.54305267333984375 -16.4758148193359375 -19.580718994140625 -22.8403167724609375 -30.8481903076171875 -44.6534423828125 -54.0050506591796875 -66.573486328125 -79.92376708984375 -90.0410919189453125 -94.315887451171875 -94.73040771484375 -90.0623626708984375 -84.4585723876953125 -78.6319732666015625 -75.229766845703125 -73.6986083984375 -72.79791259765625 -71.4381866455078125 -67.4944915771484375 -66.9412078857421875 -71.9429931640625 -76.5494384765625 -79.6001129150390625 -80.1125030517578125 -81.4948883056640625 -84.2266693115234375 -86.6190032958984375 -91.956451416015625 -97.306640625 -99.11151123046875 -90.60369873046875 -78.972900390625 -76.295013427734375 -76.991943359375 -84.003204345703125 -127.055389404296875 -222.399383544921875 -316.66644287109375 -386.030975341796875 -466.6929931640625 -533.025390625 -578.42230224609375 -608.9742431640625 -629.36968994140625 -670.280517578125 -740.655517578125 -815.77301025390625 -918.436279296875 -1102.495849609375 -1221.0174560546875 -1268.852783203125 -1335.164306640625 -1496.4031982421875 -1744.2642822265625 -1947.25927734375 -2028.171630859375 -2161.27197265625 -2303.79248046875 -2372.26904296875 -2519.219482421875 -2721.767578125 -2865.169921875 -2948.055908203125 -3024.79833984375 -3073.420654296875 -3092.531494140625 -3142.001220703125 -3175.844970703125 -3166.54931640625 -3122.20458984375 -3095.73193359375 -3068.74267578125 -3067.202880859375 -3017.0166015625 -2934.529541015625 -2850.04541015625 -2783.905517578125 -2663.9462890625 -2427.67578125 -2156.3984375 -1935.288330078125 -1844.1920166015625 -1796.416748046875 -1733.681884765625 -1675.270751953125 -1682.712646484375 -1671.7923583984375 -1672.8348388671875 -1751.493408203125 -1773.79248046875 -1788.4407958984375 -1862.9173583984375 -2024.013916015625 -2149.66259765625 -2255.093994140625 -2398.484130859375 -2534.48046875 -2679.564208984375 -2755.30908203125 -2785.885498046875 -2824.866943359375 -2864.1923828125 -2906.783447265625 -2976.267822265625 -3062.24755859375 -3132.144775390625 -3215.102294921875 -3336.203857421875 -3341.51171875 -3268.5654296875 -3192.327880859375 -3107.007568359375 -3062.57470703125 -3067.57177734375 -3087.93994140625 -3083.3203125 -3064.240234375 -3039.2109375 -3010.4326171875 -2937.034912109375 -2802.983642578125 -2716.34033203125 -2649.906494140625 -2593.754150390625 -2566.0078125 -2544.22216796875 -2520.322021484375 -2500.78759765625 -2479.765869140625 -2444.909423828125 -2425.075927734375 -2412.46533203125 -2399.738037109375 -2385.556396484375 -2363.551025390625 -2344.26904296875 -2323.95751953125 -2301.78125 -2278.05224609375 -2264.14306640625 -2247.465576171875 -2220.0380859375 -2186.509521484375 -2149.367919921875
38.6449432373046875 31.20000457763671875 23.60581207275390625 18.473419189453125 14.86480712890625 9.5606231689453125 4.6024627685546875 0.61717987060546875 -2.97615814208984375 -5.2527008056640625 -5.329742431640625 -4.3191680908203125 -3.4771575927734375 -2.97597503662109375 -2.6358642578125 -5.3774566650390625 -7.92264556884765625 -12.854827880859375 -15.7523345947265625 -18.8189697265625 -28.7200775146484375 -38.1724700927734375 -44.06219482421875 -53.0697021484375 -68.131805419921875 -79.7290496826171875 -86.2449493408203125 -88.1074066162109375 -83.925750732421875 -78.3790435791015625 -73.49383544921875 -71.135101318359375 -69.98541259765625 -70.2247772216796875 -70.569366455078125 -68.7860565185546875 -69.33642578125 -73.7173614501953125 -75.954559326171875 -78.93682861328125 -76.967437744140625 -77.5884552001953125 -80.2719268798828125 -83.9002685546875 -89.593719482421875 -92.6331939697265625 -92.1161651611328125 -83.815460205078125 -75.6050262451171875 -77.38494873046875 -80.52923583984375 -85.2630462646484375 -114.183074951171875 -187.521209716796875 -264.71038818359375 -346.3131103515625 -430.1103515625 -496.1336669921875 -535.1854248046875 -562.93035888671875 -606.45782470703125 -658.65570068359375 -719.20928955078125 -807.08099365234375 -924.367431640625 -1150.7608642578125 -1306.7591552734375 -1379.3759765625 -1439.900146484375 -1584.265869140625 -1741.0147705078125 -1875.6436767578125 -2012.69677734375 -2195.416259765625 -2382.19384765625 -2520.604248046875 -2644.714599609375 -2757.62255859375 -2823.846923828125 -2873.612060546875 -2931.193603515625 -2992.2509765625 -2997.601318359375 -3039.205810546875 -3092.93994140625 -3093.03759765625 -3004.130126953125 -2941.31982421875 -2926.584716796875 -2939.787841796875 -2950.5361328125 -2853.31005859375 -2675.31640625 -2537.215087890625 -2379.826171875 -2148.973876953125 -1935.8447265625 -1843.7816162109375 -1802.61962890625 -1772.0484619140625 -1707.985595703125 -1620.9964599609375 -1628.3701171875 -1654.597412109375 -1666.693603515625 -1716.2879638671875 -1755.2391357421875 -1800.366455078125 -1886.219482421875 -2025.18603515625 -2210.479736328125 -2286.98486328125 -2406.49560546875 -2541.116455078125 -2689.269287109375 -2798.267333984375 -2820.794189453125 -2870.71142578125 -2915.704345703125 -2981.436767578125 -3066.64013671875 -3153.7919921875 -3206.552734375 -3252.85791015625 -3341.1669921875 -3332.960693359375 -3257.4755859375 -3185.4990234375 -3088.669921875 -3035.0078125 -3054.730712890625 -3069.609619140625 -3057.32080078125 -3041.704345703125 -3025.912841796875 -3001.02294921875 -2915.717529296875 -2775.938720703125 -2676.15087890625 -2619.74853515625 -2580.54541015625 -2553.708251953125 -2534.36328125 -2512.38427734375 -2492.75634765625 -2462.931396484375 -2427.641845703125 -2412.667236328125 -2399.165771484375 -2385.112548828125 -2368.0517578125 -2350.1513671875 -2326.294677734375 -2304.28076171875 -2281.21728515625 -2257.057373046875 -2242.230224609375 -2226.8349609375 -2207.233642578125 -2179.609619140625 -2149.2568359375
47.25894927978515625 38.85863494873046875 32.10092926025390625 28.555511474609375 24.60796356201171875 18.8368377685546875 11.8955230712890625 5.669281005859375 0.7857818603515625 -2.26625823974609375 -2.7142181396484375 -1.76366424560546875 -1.1109771728515625 0.18614959716796875 0.372589111328125 -0.85528564453125 -3.1250762939453125 -7.705718994140625 -11.43829345703125 -13.04468536376953125 -19.8709869384765625 -28.567626953125 -35.2521209716796875 -42.5023651123046875 -52.53131103515625 -59.9760894775390625 -68.1669921875 -74.381622314453125 -73.0834503173828125 -70.334930419921875 -66.6208343505859375 -65.0240325927734375 -65.0910797119140625 -65.1059112548828125 -66.66510009765625 -68.0098419189453125 -68.657470703125 -70.9595184326171875 -74.429595947265625 -77.711395263671875 -73.6707305908203125 -74.9929046630859375 -77.663238525390625 -82.433074951171875 -87.49371337890625 -87.1806793212890625 -85.762359619140625 -80.3549957275390625 -76.9913177490234375 -81.1066436767578125 -84.787139892578125 -86.0908355712890625 -105.7138824462890625 -148.387969970703125 -221.027252197265625 -317.173095703125 -400.67034912109375 -461.49267578125 -516.896484375 -595.8970947265625 -687.62799072265625 -777.9925537109375 -852.0380859375 -933.699951171875 -1083.066162109375 -1290.6058349609375 -1461.486328125 -1562.1307373046875 -1647.6884765625 -1759.662353515625 -1830.2279052734375 -1991.465576171875 -2188.422119140625 -2375.730224609375 -2551.936767578125 -2655.823486328125 -2705.591064453125 -2739.0546875 -2782.722900390625 -2812.2529296875 -2807.69384765625 -2841.38916015625 -2854.885986328125 -2933.258544921875 -3005.94482421875 -3003.056640625 -2915.40966796875 -2833.10009765625 -2791.73095703125 -2799.610107421875 -2848.973388671875 -2721.46630859375 -2456.552001953125 -2310.21728515625 -2148.71826171875 -1947.9453125 -1842.051025390625 -1797.3768310546875 -1769.2315673828125 -1744.6640625 -1669.779541015625 -1581.0692138671875 -1574.3905029296875 -1604.8919677734375 -1641.1768798828125 -1660.3194580078125 -1727.83203125 -1837.50390625 -1942.4365234375 -2056.251953125 -2185.188720703125 -2270.921142578125 -2365.769775390625 -2512.4150390625 -2694.396728515625 -2795.944580078125 -2852.71337890625 -2925.952880859375 -2990.130126953125 -3074.45751953125 -3138.014892578125 -3186.81201171875 -3204.324462890625 -3222.261962890625 -3321.068115234375 -3330.359375 -3231.419677734375 -3142.82568359375 -3047.239990234375 -3020.080322265625 -3040.828369140625 -3046.729248046875 -3037.94873046875 -3024.270751953125 -3009.091064453125 -2982.87060546875 -2902.93701171875 -2759.267578125 -2665.53662109375 -2594.29443359375 -2561.036376953125 -2540.2021484375 -2520.4560546875 -2501.861572265625 -2480.662109375 -2457.111328125 -2421.404296875 -2400.982421875 -2387.7802734375 -2371.478759765625 -2355.305908203125 -2337.047607421875 -2313.995849609375 -2294.2919921875 -2269.91162109375 -2243.97216796875 -2224.789306640625 -2209.6826171875 -2190.73095703125 -2170.294189453125 -2144.517333984375
59.732906341552734375 48.02397918701171875 41.8157501220703125 38.294708251953125 35.11443328857421875 28.85852813720703125 21.1009521484375 12.64876556396484375 5.77475738525390625 1.623046875 0.5725555419921875 1.44481658935546875 3.17044830322265625 4.64133453369140625 5.1649932861328125 4.25537109375 2.40478515625 0.41211700439453125 -4.16228485107421875 -6.45113372802734375 -11.57360076904296875 -19.564666748046875 -27.167816162109375 -33.3808135986328125 -38.3399200439453125 -41.2627105712890625 -48.579742431640625 -58.1631622314453125 -61.1108551025390625 -60.5864410400390625 -59.973907470703125 -60.174468994140625 -60.51165771484375 -61.339141845703125 -61.5316314697265625 -63.53424072265625 -65.5264129638671875 -68.3187408447265625 -73.6742401123046875 -74.8524169921875 -72.1631011962890625 -74.594482421875 -76.6106109619140625 -81.920379638671875 -84.9602508544921875 -84.113311767578125 -83.0951690673828125 -81.3339691162109375 -80.9823455810546875 -84.9505462646484375 -88.2646026611328125 -88.388427734375 -96.150543212890625 -120.9436798095703125 -185.654754638671875 -285.13250732421875 -382.4749755859375 -448.6971435546875 -561.40960693359375 -695.74267578125 -853.8092041015625 -994.5223388671875 -1079.9803466796875 -1167.01953125 -1298.855712890625 -1515.6368408203125 -1666.4117431640625 -1808.7125244140625 -1941.91943359375 -2031.056396484375 -2116.66650390625 -2254.4150390625 -2433.9248046875 -2573.52099609375 -2662.880859375 -2686.1875 -2692.9326171875 -2691.228759765625 -2694.89453125 -2711.211669921875 -2654.515625 -2674.404296875 -2737.735107421875 -2867.28564453125 -2917.42138671875 -2919.04443359375 -2853.157958984375 -2725.82470703125 -2669.115234375 -2614.2431640625 -2654.500732421875 -2545.064697265625 -2277.394775390625 -2133.8583984375 -1973.7685546875 -1850.010009765625 -1783.6683349609375 -1751.304931640625 -1721.1544189453125 -1692.919921875 -1612.479736328125 -1544.7564697265625 -1543.1519775390625 -1552.3951416015625 -1601.4290771484375 -1628.2738037109375 -1727.8699951171875 -1848.1549072265625 -1983.69921875 -2059.521728515625 -2202.768310546875 -2337.905517578125 -2453.43359375 -2620.979248046875 -2752.343994140625 -2829.060791015625 -2914.838134765625 -2997.6533203125 -3059.228515625 -3111.51806640625 -3141.287109375 -3153.138427734375 -3105.135009765625 -3130.164306640625 -3303.894775390625 -3327.947509765625 -3218.60400390625 -3096.7412109375 -3010.033447265625 -3010.575927734375 -3027.562744140625 -3030.703125 -3026.876708984375 -3012.789306640625 -2991.56103515625 -2967.997802734375 -2900.9423828125 -2769.950927734375 -2666.94091796875 -2590.08984375 -2546.446533203125 -2525.64990234375 -2507.847412109375 -2488.298828125 -2472.487060546875 -2453.29052734375 -2418.151123046875 -2387.673095703125 -2374.41650390625 -2362.07763671875 -2345.41748046875 -2326.583251953125 -2304.093017578125 -2286.387939453125 -2261.1455078125 -2232.037353515625 -2213.91748046875 -2193.610107421875 -2175.115478515625 -2157.313232421875 -2134.959228515625
74.09454345703125 58.476703643798828125 49.82842254638671875 47.90639495849609375 46.04793548583984375 38.45723724365234375 30.7982177734375 22.241119384765625 14.496246337890625 9.86829376220703125 7.92302703857421875 9.39725494384765625 11.62091064453125 11.91727447509765625 12.28197479248046875 11.13108062744140625 8.8655853271484375 7.5414886474609375 2.4758453369140625 -1.081512451171875 -5.23619842529296875 -11.6951751708984375 -18.8301849365234375 -25.3304290771484375 -30.5213470458984375 -32.0998992919921875 -38.134521484375 -46.828125 -51.71234130859375 -53.1389923095703125 -54.3198699951171875 -55.1658782958984375 -56.0548553466796875 -56.5784149169921875 -57.57476806640625 -59.17669677734375 -62.583892822265625 -65.678192138671875 -71.6007080078125 -72.1662445068359375 -71.245574951171875 -74.0842132568359375 -78.0809783935546875 -82.51751708984375 -82.400634765625 -81.7286224365234375 -82.125732421875 -83.4339447021484375 -84.4490966796875 -86.345611572265625 -89.4162139892578125 -92.14483642578125 -95.1462554931640625 -105.3075103759765625 -153.775543212890625 -290.590576171875 -432.3662109375 -530.08551025390625 -655.8385009765625 -838.89447021484375 -1046.054931640625 -1218.5562744140625 -1320.958740234375 -1365.60888671875 -1499.66259765625 -1716.93505859375 -1869.1719970703125 -2049.073486328125 -2211.46728515625 -2308.804443359375 -2398.052734375 -2508.884765625 -2606.446044921875 -2649.69873046875 -2626.439697265625 -2592.238037109375 -2619.116943359375 -2593.3291015625 -2525.699951171875 -2528.027587890625 -2517.966796875 -2589.905029296875 -2699.017822265625 -2792.27099609375 -2812.151123046875 -2835.7587890625 -2791.94287109375 -2630.93212890625 -2551.612548828125 -2482.61181640625 -2443.57470703125 -2363.73046875 -2156.331298828125 -1979.0732421875 -1853.3018798828125 -1768.3955078125 -1726.992919921875 -1691.1646728515625 -1654.562255859375 -1628.9542236328125 -1559.482666015625 -1508.3734130859375 -1517.447265625 -1514.9794921875 -1556.945556640625 -1635.778076171875 -1727.0484619140625 -1834.8338623046875 -1977.186279296875 -2069.1904296875 -2263.43408203125 -2443.99365234375 -2578.107666015625 -2740.4599609375 -2851.294677734375 -2876.0986328125 -2942.535888671875 -3013.23095703125 -3054.600341796875 -3075.850341796875 -3081.774658203125 -3017.01171875 -2952.433349609375 -3088.61376953125 -3301.2021484375 -3323.509033203125 -3215.525390625 -3084.333740234375 -2986.791748046875 -2995.518798828125 -3015.62255859375 -3015.3310546875 -3011.79638671875 -2994.585205078125 -2974.096923828125 -2951.664794921875 -2905.328857421875 -2772.645751953125 -2664.979736328125 -2588.75439453125 -2530.89013671875 -2511.33740234375 -2493.64013671875 -2477.10009765625 -2462.802490234375 -2445.130126953125 -2413.328125 -2375.468017578125 -2361.968017578125 -2349.5849609375 -2335.73046875 -2315.72314453125 -2295.76806640625 -2277.272216796875 -2249.098876953125 -2222.557373046875 -2201.555419921875 -2182.27978515625 -2162.762939453125 -2146.02294921875 -2127.804931640625
92.9799652099609375 85.51318359375 63.8255462646484375 59.876911163330078125 59.7376861572265625 49.324337005615234375 40.79561614990234375 34.08322906494140625 27.701385498046875 23.34635162353515625 22.27658843994140625 21.491363525390625 22.76531982421875 22.13986968994140625 20.7677764892578125 19.526458740234375 17.03954315185546875 14.84944915771484375 10.95142364501953125 5.64959716796875 1.03330230712890625 -5.08123779296875 -11.06041717529296875 -17.3852386474609375 -23.5209808349609375 -26.388580322265625 -30.451263427734375 -38.371734619140625 -43.9855499267578125 -47.224365234375 -50.07916259765625 -51.062469482421875 -52.065643310546875 -52.3128662109375 -53.4045257568359375 -56.322265625 -58.96942138671875 -63.269500732421875 -68.2385711669921875 -70.288116455078125 -72.1950836181640625 -75.3203277587890625 -81.3058013916015625 -80.4718017578125 -79.62103271484375 -79.5468597412109375 -81.2894439697265625 -83.816192626953125 -84.86279296875 -84.4527130126953125 -86.8048553466796875 -92.7956390380859375 -97.390594482421875 -103.2382659912109375 -179.556304931640625 -373.709930419921875 -562.70166015625 -644.26788330078125 -794.1507568359375 -1007.0279541015625 -1241.945068359375 -1402.3218994140625 -1453.1915283203125 -1479.2064208984375 -1608.319580078125 -1837.4312744140625 -1955.86376953125 -2135.719970703125 -2322.074951171875 -2412.89794921875 -2533.71923828125 -2595.427490234375 -2605.38525390625 -2573.6201171875 -2462.726318359375 -2431.127685546875 -2519.5361328125 -2422.84765625 -2327.94482421875 -2392.4033203125 -2479.833984375 -2561.098876953125 -2608.20751953125 -2614.82373046875 -2685.30029296875 -2752.438232421875 -2728.897705078125 -2530.335693359375 -2417.40283203125 -2342.19873046875 -2257.32275390625 -2191.092041015625 -2086.944091796875 -1928.0621337890625 -1765.8338623046875 -1677.7318115234375 -1646.32470703125 -1631.588134765625 -1605.81689453125 -1568.3360595703125 -1520.1849365234375 -1467.1103515625 -1484.920654296875 -1489.0614013671875 -1557.666259765625 -1672.2178955078125 -1745.852783203125 -1817.077392578125 -1924.1334228515625 -1994.87841796875 -2173.356201171875 -2371.444091796875 -2560.607666015625 -2763.03662109375 -2791.93701171875 -2800.39306640625 -2884.677490234375 -2956.4384765625 -2993.42578125 -2979.689208984375 -2941.062255859375 -2849.653076171875 -2897.388671875 -3121.237060546875 -3296.4296875 -3329.84716796875 -3232.275390625 -3082.711669921875 -2969.9580078125 -2964.54296875 -3003.527099609375 -3000.90771484375 -2991.5830078125 -2976.421630859375 -2954.010498046875 -2934.016845703125 -2891.66015625 -2770.287841796875 -2647.560302734375 -2567.73876953125 -2517.113037109375 -2491.03759765625 -2475.6103515625 -2460.407958984375 -2447.292724609375 -2432.169921875 -2402.203125 -2367.803466796875 -2350.301513671875 -2334.438720703125 -2320.235595703125 -2303.546875 -2283.71875 -2263.254150390625 -2241.07666015625 -2213.7958984375 -2192.8837890625 -2170.579345703125 -2153.001708984375 -2135.778564453125 -2119.2216796875
154.9888916015625 135.7859954833984375 80.09339141845703125 70.546539306640625 70.273468017578125 58.02857208251953125 48.8542633056640625 44.36773681640625 41.000701904296875 37.27629852294921875 35.10184478759765625 33.8669281005859375 33.68658447265625 31.55565643310546875 29.18285369873046875 27.1543426513671875 25.0369873046875 22.41263580322265625 18.546630859375 12.26479339599609375 5.59937286376953125 -0.2256317138671875 -4.8260040283203125 -10.52474212646484375 -16.5562591552734375 -19.640045166015625 -23.5070037841796875 -29.95343017578125 -35.5027313232421875 -41.1982574462890625 -46.19000244140625 -47.99249267578125 -48.5835723876953125 -49.3836212158203125 -50.10540771484375 -52.8077850341796875 -56.2035980224609375 -59.243927001953125 -63.4699249267578125 -67.85028076171875 -73.3001556396484375 -76.2781982421875 -79.8828125 -78.551849365234375 -76.9656982421875 -78.934295654296875 -80.3739166259765625 -81.1844329833984375 -79.7242431640625 -77.3645172119140625 -82.9461517333984375 -93.6840667724609375 -121.516143798828125 -162.130950927734375 -266.11102294921875 -457.2325439453125 -606.13873291015625 -705.1646728515625 -885.85076904296875 -1145.9517822265625 -1368.3958740234375 -1448.327392578125 -1453.755126953125 -1472.4840087890625 -1587.30517578125 -1776.9678955078125 -1878.09326171875 -2014.12451171875 -2157.603271484375 -2282.400390625 -2424.029541015625 -2477.29443359375 -2456.28173828125 -2413.165283203125 -2299.611572265625 -2338.656494140625 -2420.334228515625 -2276.75537109375 -2259.163818359375 -2363.947265625 -2388.881591796875 -2423.04345703125 -2454.66552734375 -2436.213134765625 -2559.014892578125 -2666.41259765625 -2652.841796875 -2489.490234375 -2290.501953125 -2204.9619140625 -2136.501708984375 -2038.719482421875 -2037.892822265625 -1916.736328125 -1729.8126220703125 -1610.9727783203125 -1588.94189453125 -1592.3817138671875 -1636.4453125 -1606.09033203125 -1503.669189453125 -1438.44091796875 -1448.62646484375 -1479.42041015625 -1568.5498046875 -1666.3494873046875 -1712.4205322265625 -1765.6025390625 -1859.1336669921875 -1918.741455078125 -2197.6796875 -2407.32275390625 -2588.734375 -2589.22314453125 -2585.42578125 -2697.98974609375 -2847.798583984375 -2899.79833984375 -2926.502197265625 -2877.2451171875 -2814.250732421875 -2786.170166015625 -2944.173095703125 -3151.480224609375 -3301.912353515625 -3328.0693359375 -3219.660400390625 -3064.369140625 -2951.768798828125 -2932.531982421875 -2979.757080078125 -2983.21826171875 -2971.4560546875 -2961.564697265625 -2939.917236328125 -2905.444580078125 -2858.324951171875 -2743.113525390625 -2621.155029296875 -2563.194580078125 -2520.0673828125 -2493.70068359375 -2468.038818359375 -2444.7275390625 -2431.308349609375 -2414.76806640625 -2386.9267578125 -2357.28955078125 -2342.448974609375 -2323.634521484375 -2308.2734375 -2289.47021484375 -2268.18212890625 -2252.420166015625 -2230.518310546875 -2207.9814453125 -2184.98193359375 -2162.300537109375 -2144.320556640625 -2126.9150390625 -2113.006591796875
177.0982513427734375 166.1802215576171875 103.839019775390625 101.81630706787109375 77.9155426025390625 66.7877349853515625 58.56873321533203125 55.885562896728515625 53.86420440673828125 50.042659759521484375 46.092254638671875 44.79119110107421875 43.4034423828125 39.70211029052734375 36.97745513916015625 35.297760009765625 32.1050872802734375 30.46741485595703125 27.217254638671875 21.58272552490234375 13.14206695556640625 5.10589599609375 -0.1134796142578125 -4.8261871337890625 -9.23838043212890625 -12.8207550048828125 -16.669830322265625 -22.4107208251953125 -28.4126739501953125 -35.16424560546875 -40.609344482421875 -43.6325836181640625 -44.374359130859375 -45.2404022216796875 -45.9967498779296875 -49.6884765625 -53.3833160400390625 -55.5992431640625 -58.7478485107421875 -61.953094482421875 -67.213470458984375 -72.1719207763671875 -73.7731781005859375 -74.55645751953125 -75.789794921875 -78.524444580078125 -79.084625244140625 -75.1703948974609375 -69.9498748779296875 -69.7518310546875 -83.2054290771484375 -117.2373046875 -195.80511474609375 -305.71868896484375 -394.927337646484375 -517.44354248046875 -643.887939453125 -753.3900146484375 -969.9642333984375 -1223.0360107421875 -1393.9144287109375 -1402.4766845703125 -1373.2877197265625 -1387.5980224609375 -1465.8505859375 -1623.1842041015625 -1714.9730224609375 -1798.5166015625 -1915.9923095703125 -2034.986083984375 -2158.4443359375 -2220.29345703125 -2222.134033203125 -2161.218994140625 -2092.894775390625 -2211.23876953125 -2306.812255859375 -2197.771484375 -2195.89453125 -2232.3349609375 -2190.70703125 -2244.37841796875 -2331.860595703125 -2300.97314453125 -2438.412353515625 -2588.79931640625 -2588.58544921875 -2451.58935546875 -2236.13916015625 -2093.4833984375 -2004.346923828125 -1901.0323486328125 -1924.7076416015625 -1880.0889892578125 -1691.0223388671875 -1568.8294677734375 -1529.4114990234375 -1553.6339111328125 -1664.38720703125 -1672.372802734375 -1515.488525390625 -1414.732421875 -1415.0882568359375 -1461.00537109375 -1542.3197021484375 -1595.0421142578125 -1625.984619140625 -1702.6610107421875 -1804.9244384765625 -1967.155029296875 -2255.350341796875 -2413.39599609375 -2465.555419921875 -2359.931640625 -2459.613525390625 -2668.06787109375 -2817.61279296875 -2817.07568359375 -2841.3994140625 -2781.4462890625 -2708.201171875 -2793.994384765625 -2944.102783203125 -3109.475341796875 -3287.19580078125 -3298.359619140625 -3202.021484375 -3056.1767578125 -2948.324462890625 -2910.5517578125 -2930.561767578125 -2938.54541015625 -2928.696044921875 -2933.103759765625 -2907.374755859375 -2858.215087890625 -2791.680908203125 -2666.612548828125 -2584.220703125 -2536.4404296875 -2494.764892578125 -2472.15869140625 -2448.23583984375 -2421.901611328125 -2401.7392578125 -2382.23095703125 -2359.70751953125 -2342.58837890625 -2329.604248046875 -2313.64599609375 -2296.148681640625 -2274.876708984375 -2255.981689453125 -2239.307861328125 -2220.4462890625 -2197.6884765625 -2176.602294921875 -2153.558349609375 -2136.645263671875 -2121.216064453125 -2103.9541015625
173.380615234375 167.9683990478515625 136.5723419189453125 136.267578125 89.8006439208984375 75.1100921630859375 68.1936798095703125 65.30141448974609375 62.77320098876953125 59.0060882568359375 56.0307769775390625 54.333271026611328125 52.34000396728515625 47.900054931640625 44.4158782958984375 42.089202880859375 40.17868804931640625 38.8010711669921875 36.65872955322265625 31.88916015625 23.520965576171875 12.21239471435546875 4.8790283203125 -0.649810791015625 -4.310821533203125 -7.10269927978515625 -11.56606292724609375 -16.7276763916015625 -22.292327880859375 -29.0042266845703125 -35.1430206298828125 -38.3856201171875 -40.51287841796875 -40.6129913330078125 -41.2398223876953125 -46.5032501220703125 -50.141754150390625 -50.884765625 -51.888946533203125 -52.1566314697265625 -57.0487823486328125 -62.3012847900390625 -65.652069091796875 -69.9750823974609375 -74.9528350830078125 -79.1907806396484375 -79.3039703369140625 -76.165802001953125 -71.787384033203125 -74.9119110107421875 -96.9642486572265625 -149.9720458984375 -293.134674072265625 -484.15509033203125 -555.9345703125 -647.39617919921875 -725.600341796875 -849.4346923828125 -1027.180419921875 -1216.4915771484375 -1321.786376953125 -1282.9561767578125 -1225.60107421875 -1216.3206787109375 -1261.4080810546875 -1404.5301513671875 -1509.3072509765625 -1609.3905029296875 -1720.1029052734375 -1800.7431640625 -1876.1956787109375 -1939.37158203125 -1938.092529296875 -1868.6602783203125 -1838.7001953125 -2014.197021484375 -2137.830078125 -2055.12353515625 -2008.619873046875 -2023.533203125 -2004.132568359375 -2092.899169921875 -2224.96044921875 -2191.458740234375 -2345.7578125 -2507.53857421875 -2511.46533203125 -2404.753173828125 -2208.06982421875 -2029.134033203125 -1916.595947265625 -1792.5601806640625 -1792.5467529296875 -1813.408203125 -1675.9814453125 -1508.4901123046875 -1443.770263671875 -1489.9761962890625 -1586.804443359375 -1639.8779296875 -1501.3660888671875 -1402.0904541015625 -1374.4617919921875 -1419.02197265625 -1486.013427734375 -1520.809326171875 -1551.3565673828125 -1612.53466796875 -1756.589111328125 -1935.65380859375 -2173.250244140625 -2369.622314453125 -2288.001953125 -2255.4345703125 -2444.85986328125 -2682.448486328125 -2758.601806640625 -2694.009765625 -2749.581787109375 -2683.044921875 -2617.530517578125 -2721.876220703125 -2822.172119140625 -3068.692626953125 -3295.095947265625 -3276.547607421875 -3195.509521484375 -3073.8076171875 -2975.026123046875 -2924.025390625 -2884.399169921875 -2872.99853515625 -2869.548583984375 -2882.52783203125 -2863.345458984375 -2809.13916015625 -2729.145751953125 -2621.9892578125 -2537.72607421875 -2469.459228515625 -2422.009521484375 -2404.175048828125 -2393.423095703125 -2374.926025390625 -2355.625732421875 -2342.760498046875 -2333.88818359375 -2324.220947265625 -2314.121826171875 -2299.697998046875 -2280.83984375 -2262.380859375 -2242.546630859375 -2228.408935546875 -2209.47119140625 -2187.5546875 -2166.637451171875 -2146.03662109375 -2131.145751953125 -2111.364501953125 -2092.651611328125
205.3898773193359375 184.022247314453125 124.31624603271484375 159.227142333984375 136.103759765625 120.33939361572265625 94.4267578125 77.59234619140625 67.66583251953125 67.680267333984375 67.088287353515625 63.22198486328125 60.15747833251953125 55.13961029052734375 50.541980743408203125 49.181217193603515625 46.8752288818359375 46.58614349365234375 46.8592071533203125 41.64313507080078125 32.1243896484375 20.9453887939453125 11.6722412109375 4.618988037109375 0.3273162841796875 -3.30017852783203125 -7.1111602783203125 -12.40758514404296875 -17.5082855224609375 -23.82464599609375 -29.4279937744140625 -33.3430328369140625 -36.444366455078125 -36.97003173828125 -38.2291717529296875 -42.9042816162109375 -43.2598724365234375 -42.7481842041015625 -45.4598236083984375 -48.7655487060546875 -50.42333984375 -53.666259765625 -60.6600341796875 -68.562530517578125 -77.18505859375 -88.198333740234375 -96.9777679443359375 -115.1252593994140625 -119.851348876953125 -125.4017181396484375 -139.5948486328125 -213.6307373046875 -405.53033447265625 -650.99639892578125 -760.4417724609375 -801.02978515625 -852.98345947265625 -939.3890380859375 -1048.93603515625 -1149.02783203125 -1184.7095947265625 -1115.7169189453125 -1030.5614013671875 -972.7135009765625 -999.9991455078125 -1145.80126953125 -1304.767333984375 -1464.3502197265625 -1579.0714111328125 -1618.470458984375 -1656.9737548828125 -1700.7679443359375 -1680.3448486328125 -1590.0040283203125 -1589.379150390625 -1755.7020263671875 -1878.5296630859375 -1845.3262939453125 -1791.664306640625 -1820.4954833984375 -1861.591552734375 -1983.49853515625 -2121.039794921875 -2109.5908203125 -2264.921630859375 -2423.3271484375 -2433.654541015625 -2325.48095703125 -2171.0078125 -1991.41259765625 -1844.0948486328125 -1712.574951171875 -1656.519775390625 -1709.2061767578125 -1646.020751953125 -1479.8564453125 -1360.3114013671875 -1406.6409912109375 -1458.695556640625 -1508.2962646484375 -1438.2467041015625 -1335.894775390625 -1317.0802001953125 -1378.7584228515625 -1419.2762451171875 -1454.1917724609375 -1474.67724609375 -1535.4693603515625 -1651.3515625 -1847.72216796875 -2176.112060546875 -2244.984130859375 -2106.080810546875 -2220.914306640625 -2426.790771484375 -2664.32568359375 -2649.258544921875 -2579.893798828125 -2675.921875 -2584.15576171875 -2490.132080078125 -2557.708740234375 -2755.23974609375 -3098.60546875 -3288.37890625 -3255.60107421875 -3189.74462890625 -3084.281982421875 -2984.626708984375 -2932.98095703125 -2855.2666015625 -2846.350830078125 -2836.762939453125 -2828.12939453125 -2819.794677734375 -2787.388916015625 -2738.4248046875 -2628.03076171875 -2531.172119140625 -2447.155517578125 -2398.076171875 -2376.55908203125 -2356.290283203125 -2337.902099609375 -2322.61474609375 -2318.2421875 -2310.491943359375 -2303.872314453125 -2295.73486328125 -2282.441162109375 -2264.97900390625 -2246.57666015625 -2229.955810546875 -2212.979248046875 -2196.044189453125 -2176.041259765625 -2158.08349609375 -2141.69970703125 -2122.072998046875 -2101.41064453125 -2080.6904296875
235.3045806884765625 185.94110107421875 123.3214111328125 160.0233154296875 156.967071533203125 152.925262451171875 137.957275390625 120.75945281982421875 103.72107696533203125 91.77056884765625 77.846466064453125 70.897552490234375 68.12054443359375 62.735279083251953125 58.066455841064453125 55.936672210693359375 53.24547576904296875 53.621227264404296875 54.4340362548828125 49.751689910888671875 40.3475799560546875 29.6195831298828125 19.503448486328125 11.45398712158203125 4.22894287109375 0.34891510009765625 -3.546844482421875 -8.20378875732421875 -13.11331939697265625 -19.1360321044921875 -25.2765045166015625 -29.878570556640625 -32.2245941162109375 -34.91259765625 -38.773895263671875 -41.5346221923828125 -38.1559906005859375 -42.95526123046875 -53.691650390625 -63.516143798828125 -58.306427001953125 -55.2709503173828125 -64.4416961669921875 -79.7545623779296875 -106.7939300537109375 -138.78277587890625 -177.461273193359375 -227.46392822265625 -240.941131591796875 -243.335052490234375 -276.233367919921875 -397.278076171875 -626.15313720703125 -870.90283203125 -926.5625 -915.098876953125 -938.789306640625 -988.4658203125 -1028.949951171875 -1043.2613525390625 -1018.5546875 -928.7674560546875 -796.169189453125 -705.66302490234375 -748.6689453125 -934.6766357421875 -1143.60107421875 -1352.6827392578125 -1435.24853515625 -1434.357666015625 -1462.7591552734375 -1506.237548828125 -1461.7332763671875 -1386.8052978515625 -1387.25634765625 -1503.05615234375 -1611.6451416015625 -1603.0777587890625 -1567.441162109375 -1606.59765625 -1717.6739501953125 -1875.446044921875 -2003.17919921875 -2056.8271484375 -2242.67626953125 -2356.281005859375 -2356.100830078125 -2249.8095703125 -2103.150390625 -1928.8477783203125 -1788.154296875 -1622.830810546875 -1535.42724609375 -1559.9395751953125 -1558.0335693359375 -1470.8802490234375 -1309.29150390625 -1330.284912109375 -1332.5758056640625 -1368.8804931640625 -1367.4725341796875 -1277.7005615234375 -1273.818115234375 -1359.834716796875 -1351.5257568359375 -1356.718994140625 -1363.0263671875 -1417.6510009765625 -1602.3642578125 -1901.3826904296875 -2069.715576171875 -1978.03515625 -1953.317138671875 -2120.2998046875 -2356.45751953125 -2589.777587890625 -2490.992919921875 -2463.138671875 -2563.991455078125 -2463.932861328125 -2381.195556640625 -2493.6435546875 -2781.1572265625 -3067.84130859375 -3273.162841796875 -3249.576171875 -3178.16552734375 -3084.49658203125 -3007.54248046875 -2956.474853515625 -2899.904541015625 -2905.1669921875 -2861.87939453125 -2783.62890625 -2774.829833984375 -2766.647705078125 -2729.3447265625 -2641.56103515625 -2555.747802734375 -2470.518310546875 -2401.576171875 -2372.170166015625 -2341.28515625 -2318.900634765625 -2307.427734375 -2298.640869140625 -2289.925537109375 -2282.171630859375 -2274.977294921875 -2263.515380859375 -2246.070556640625 -2230.640380859375 -2213.715576171875 -2197.291015625 -2181.01953125 -2161.0849609375 -2145.511474609375 -2128.526123046875 -2110.12158203125 -2089.517578125 -2070.85302734375
217.56170654296875 171.3636474609375 158.0878753662109375 166.7031707763671875 190.169891357421875 164.5161895751953125 160.4561004638671875 155.25946044921875 136.1815338134765625 131.038848876953125 126.8496856689453125 102.3887939453125 85.6666107177734375 73.51811981201171875 68.051910400390625 64.94664764404296875 62.497714996337890625 59.868343353271484375 59.346508026123046875 54.6442718505859375 45.615264892578125 37.18695831298828125 27.8975830078125 18.8475799560546875 10.3969573974609375 4.22772216796875 -0.414154052734375 -4.89153289794921875 -9.0582122802734375 -15.4286956787109375 -21.5083465576171875 -25.7517547607421875 -29.449981689453125 -34.986572265625 -43.5313720703125 -50.5543670654296875 -60.35333251953125 -87.717437744140625 -108.170440673828125 -121.522491455078125 -110.2216033935546875 -94.649932861328125 -100.8973388671875 -133.1520843505859375 -196.816925048828125 -266.445343017578125 -358.418365478515625 -424.01690673828125 -401.09893798828125 -431.00860595703125 -545.83941650390625 -746.101806640625 -908.70654296875 -963.9036865234375 -938.7506103515625 -921.80126953125 -942.08154296875 -959.803466796875 -943.7242431640625 -896.92852783203125 -838.069580078125 -704.49371337890625 -548.30047607421875 -478.07781982421875 -588.34918212890625 -827.2904052734375 -1056.79833984375 -1227.2462158203125 -1248.981689453125 -1210.5675048828125 -1249.9334716796875 -1312.686767578125 -1289.739990234375 -1234.930908203125 -1236.7696533203125 -1298.82080078125 -1359.9488525390625 -1376.52587890625 -1367.0653076171875 -1427.8935546875 -1577.06494140625 -1746.83203125 -1859.074462890625 -1975.74267578125 -2170.515869140625 -2282.6845703125 -2279.2763671875 -2171.904541015625 -2027.9736328125 -1878.9957275390625 -1687.177490234375 -1504.590087890625 -1403.546875 -1393.3060302734375 -1399.3458251953125 -1404.6204833984375 -1290.86572265625 -1246.32861328125 -1238.136474609375 -1306.490478515625 -1343.1920166015625 -1249.3470458984375 -1221.77099609375 -1320.927490234375 -1267.7764892578125 -1236.188720703125 -1242.064697265625 -1400.9840087890625 -1700.5701904296875 -1872.2059326171875 -1790.8709716796875 -1770.1375732421875 -1807.40771484375 -2023.863037109375 -2343.68798828125 -2465.3466796875 -2283.08154296875 -2281.402587890625 -2404.384033203125 -2340.573974609375 -2299.74658203125 -2483.083984375 -2746.2294921875 -3009.249267578125 -3229.4501953125 -3265.68115234375 -3183.894775390625 -3138.80078125 -3104.09326171875 -3069.34521484375 -3045.677490234375 -3035.070068359375 -2964.5029296875 -2852.79052734375 -2808.454345703125 -2752.709716796875 -2693.67236328125 -2615.758544921875 -2548.33935546875 -2473 -2383.024658203125 -2333.385009765625 -2304.72314453125 -2295.806640625 -2289.716796875 -2282.19921875 -2271.58349609375 -2261.9208984375 -2255.032470703125 -2243.11083984375 -2228.811279296875 -2212.837646484375 -2196.880615234375 -2181.846435546875 -2164.240966796875 -2145.824951171875 -2127.466552734375 -2112.41162109375 -2094.102294921875 -2077.1904296875 -2061.215576171875
296.70611572265625 192.252044677734375 297.76336669921875 330.22369384765625 337.360137939453125 193.4189453125 170.292022705078125 167.812896728515625 154.5579681396484375 163.0074005126953125 160.7445831298828125 136.975860595703125 125.1236114501953125 104.267486572265625 84.30849456787109375 75.90482330322265625 71.8578643798828125 66.73839569091796875 64.1428375244140625 57.724689483642578125 52.0245208740234375 44.3555755615234375 36.304779052734375 27.58324432373046875 18.49291229248046875 10.15738677978515625 2.9447174072265625 -1.89080047607421875 -5.70709228515625 -11.91495513916015625 -17.75262451171875 -21.90570068359375 -26.1414794921875 -34.502410888671875 -48.388946533203125 -68.2638092041015625 -127.68414306640625 -191.08367919921875 -222.238311767578125 -235.208465576171875 -222.58123779296875 -196.656463623046875 -198.80096435546875 -257.579925537109375 -326.509124755859375 -421.79449462890625 -610.09539794921875 -626.30010986328125 -532.0439453125 -601.57781982421875 -799.9088134765625 -923.5853271484375 -887.74310302734375 -821.9107666015625 -788.03387451171875 -797.2747802734375 -817.48016357421875 -809.7060546875 -762.80279541015625 -711.60357666015625 -623.71710205078125 -479.8143310546875 -360.567901611328125 -375.355560302734375 -546.051513671875 -817.1959228515625 -992.6895751953125 -1087.77734375 -1039.7249755859375 -981.10205078125 -1031.2398681640625 -1132.4278564453125 -1127.4931640625 -1086.493408203125 -1108.2142333984375 -1147.6336669921875 -1175.5496826171875 -1212.3970947265625 -1247.79638671875 -1326.60498046875 -1461.8958740234375 -1581.1595458984375 -1677.0084228515625 -1824.441650390625 -2026.486083984375 -2177.79052734375 -2196.466796875 -2113.034912109375 -1996.93505859375 -1812.99560546875 -1600.3453369140625 -1392.4378662109375 -1263.7392578125 -1216.0999755859375 -1231.5762939453125 -1292.431396484375 -1287.585693359375 -1270.839111328125 -1210.5948486328125 -1254.621337890625 -1283.6385498046875 -1182.4844970703125 -1180.2191162109375 -1255.77978515625 -1188.7955322265625 -1166.1314697265625 -1278.0399169921875 -1529.121337890625 -1682.2283935546875 -1626.1610107421875 -1605.0618896484375 -1616.6807861328125 -1690.17041015625 -1993.33935546875 -2236.31396484375 -2254.56298828125 -2050.029052734375 -2087.240234375 -2228.78369140625 -2177.9169921875 -2198.235595703125 -2437.423828125 -2739.6396484375 -2930.179931640625 -3132.94189453125 -3267.288818359375 -3228.474365234375 -3209.8408203125 -3200.37939453125 -3196.282958984375 -3180.73046875 -3160.4853515625 -3117.7548828125 -3033.7041015625 -2940.060546875 -2836.95361328125 -2735.197509765625 -2636.900634765625 -2554.0185546875 -2480.548828125 -2381.8623046875 -2312.84716796875 -2288.4716796875 -2267.84228515625 -2263.00390625 -2261.599365234375 -2251.401123046875 -2242.061279296875 -2233.962158203125 -2223.417236328125 -2209.946533203125 -2195.6875 -2178.753662109375 -2162.66943359375 -2147.989013671875 -2127.721923828125 -2112.094970703125 -2095.504638671875 -2079.073486328125 -2063.70556640625 -2048.04296875
563.75067138671875 403.80194091796875 281.348968505859375 422.259796142578125 657.24041748046875 530.6929931640625 308.7412109375 226.6917877197265625 193.646240234375 192.01983642578125 190.997100830078125 164.71319580078125 163.633575439453125 141.277587890625 107.34124755859375 85.4041748046875 80.498016357421875 76.5083160400390625 71.7910308837890625 65.8186798095703125 59.936737060546875 53.08942413330078125 45.32523345947265625 36.50714874267578125 26.82486724853515625 17.58821868896484375 8.37955474853515625 1.1664581298828125 -2.88916015625 -8.065338134765625 -14.333251953125 -17.9988250732421875 -21.334259033203125 -31.72711181640625 -44.204315185546875 -73.16021728515625 -166.1015625 -273.50811767578125 -333.146759033203125 -360.517547607421875 -363.199310302734375 -346.27093505859375 -349.241973876953125 -376.8470458984375 -413.63232421875 -533.54400634765625 -747.35791015625 -686.06396484375 -541.4769287109375 -630.5380859375 -773.7845458984375 -755.9366455078125 -681.04937744140625 -616.492431640625 -565.86407470703125 -571.70062255859375 -580.03118896484375 -557.7794189453125 -532.34527587890625 -485.54864501953125 -416.26910400390625 -329.19744873046875 -328.755157470703125 -400.15692138671875 -597.25537109375 -834.82171630859375 -959.0810546875 -965.7845458984375 -861.9560546875 -781.57598876953125 -860.67877197265625 -997.1429443359375 -997.5325927734375 -961.5147705078125 -1011.728515625 -1035.537353515625 -1035.4727783203125 -1094.3843994140625 -1172.4285888671875 -1262.43017578125 -1366.0738525390625 -1426.477783203125 -1503.243408203125 -1698.25 -1879.02490234375 -2072.529052734375 -2112.2197265625 -2038.201904296875 -1930.3907470703125 -1761.5831298828125 -1537.7723388671875 -1315.491943359375 -1133.6363525390625 -1042.7733154296875 -1056.9569091796875 -1154.765380859375 -1295.3326416015625 -1335.3863525390625 -1174.840087890625 -1131.6412353515625 -1176.0706787109375 -1133.56494140625 -1128.81494140625 -1151.74072265625 -1113.8590087890625 -1192.042724609375 -1366.4407958984375 -1459.7852783203125 -1430.6258544921875 -1325.2020263671875 -1367.2376708984375 -1406.220458984375 -1576.02001953125 -1863.303955078125 -2080.373779296875 -2015.37158203125 -1805.099609375 -1914.68896484375 -2050.218017578125 -2042.41943359375 -2140.15380859375 -2426.9560546875 -2668.2080078125 -2830.56201171875 -3003.9072265625 -3208.444580078125 -3229.89013671875 -3229.454833984375 -3200.5537109375 -3168.2392578125 -3146.4501953125 -3164.530029296875 -3189.62353515625 -3163.99072265625 -3092.60546875 -2991.72998046875 -2900.9140625 -2766.37060546875 -2664.36572265625 -2587.295166015625 -2472.578369140625 -2377.458740234375 -2329.3671875 -2260.976318359375 -2229.905517578125 -2223.6884765625 -2220.625 -2216.625244140625 -2212.77587890625 -2202.824462890625 -2191.465087890625 -2177.266357421875 -2158.754150390625 -2142.233154296875 -2126.09619140625 -2108.98486328125 -2092.990478515625 -2078.72314453125 -2063.501708984375 -2048.474365234375 -2034.245849609375
608.35955810546875 603.28472900390625 632.83154296875 582.6678466796875 671.1888427734375 598.850830078125 487.382080078125 534.1522216796875 507.7091064453125 349.95294189453125 241.8994140625 169.1905975341796875 174.9027252197265625 143.699066162109375 124.9805450439453125 102.2900543212890625 89.3209228515625 84.678955078125 82.8954315185546875 75.668701171875 68.5949249267578125 63.7445068359375 53.848308563232421875 45.237274169921875 36.74163818359375 26.110321044921875 15.59767913818359375 6.7008819580078125 1.062774658203125 -4.19179534912109375 -9.75916290283203125 -12.8859405517578125 -14.6438446044921875 -26.1338653564453125 -33.4692535400390625 -40.7652587890625 -124.3821258544921875 -251.844970703125 -366.42340087890625 -426.41748046875 -466.7716064453125 -505.66656494140625 -501.3912353515625 -446.2900390625 -443.54071044921875 -509.680419921875 -616.46051025390625 -521.4964599609375 -416.92657470703125 -487.61083984375 -542.1265869140625 -512.322265625 -468.94256591796875 -382.5948486328125 -325.030975341796875 -324.225494384765625 -316.8211669921875 -306.46331787109375 -301.011444091796875 -277.803131103515625 -257.503265380859375 -304.1297607421875 -392.961456298828125 -466.28948974609375 -644.7999267578125 -853.3006591796875 -895.33184814453125 -816.13671875 -646.5069580078125 -579.23968505859375 -718.29290771484375 -897.28765869140625 -922.07958984375 -874.8701171875 -904.62451171875 -910.5465087890625 -915.4879150390625 -1006.7672119140625 -1100.23779296875 -1187.0966796875 -1280.255126953125 -1317.8524169921875 -1380.4493408203125 -1562.23486328125 -1758.4522705078125 -1969.119140625 -2033.514892578125 -1930.595703125 -1819.0755615234375 -1653.324951171875 -1449.3240966796875 -1240.507568359375 -1027.271728515625 -909.59210205078125 -893.630859375 -964.359375 -1085.2611083984375 -1231.8609619140625 -1133.3553466796875 -1024.71240234375 -1067.9261474609375 -1039.026123046875 -1012.453369140625 -1026.251708984375 -1046.53173828125 -1140.0758056640625 -1196.781005859375 -1122.2442626953125 -1086.3895263671875 -1006.6781005859375 -1066.623291015625 -1316.8023681640625 -1569.6484375 -1815.3375244140625 -1936.032470703125 -1757.341552734375 -1617.7611083984375 -1804.45703125 -1926.6688232421875 -2025.5595703125 -2237.89111328125 -2433.135986328125 -2655.591064453125 -2812.68115234375 -2932.586669921875 -3079.605224609375 -3156.53955078125 -3186.481689453125 -3092.2880859375 -3038.987548828125 -3031.8662109375 -3081.020751953125 -3127.7900390625 -3170.133544921875 -3165.110107421875 -3125.36328125 -3081.812255859375 -2942.95068359375 -2850.836181640625 -2791.35498046875 -2658.705322265625 -2540.093505859375 -2432.390625 -2295.31591796875 -2232.328369140625 -2196.598876953125 -2183.513671875 -2180.862548828125 -2181.096435546875 -2171.596923828125 -2164.64794921875 -2155.806396484375 -2137.3935546875 -2116.9541015625 -2101.3798828125 -2085.35302734375 -2072.921630859375 -2058.602294921875 -2044.357421875 -2030.360107421875 -2016.619384765625
638.4083251953125 724.91229248046875 906.108642578125 806.81048583984375 767.6241455078125 652.86138916015625 538.05584716796875 441.752777099609375 380.1246337890625 392.673126220703125 293.968994140625 267.73529052734375 213.34295654296875 186.2118682861328125 165.6400299072265625 150.54327392578125 111.13763427734375 104.79079437255859375 91.390533447265625 83.03624725341796875 76.6832275390625 71.5550537109375 61.084003448486328125 52.370899200439453125 45.08168792724609375 33.67961883544921875 22.90470123291015625 13.5317840576171875 5.38916015625 -0.64078521728515625 -5.529083251953125 -8.32875823974609375 -8.532379150390625 -20.362396240234375 -28.3022613525390625 -31.0987701416015625 -84.535308837890625 -190.062408447265625 -302.312591552734375 -369.559234619140625 -442.82958984375 -521.17144775390625 -517.98681640625 -443.81085205078125 -425.109130859375 -400.818359375 -393.67938232421875 -328.34539794921875 -291.15277099609375 -330.111968994140625 -345.082794189453125 -338.085784912109375 -292.822021484375 -223.743011474609375 -181.7298583984375 -176.070465087890625 -176.2340087890625 -180.085601806640625 -189.88690185546875 -200.125396728515625 -243.1309814453125 -343.84552001953125 -431.7440185546875 -478.94482421875 -616.8148193359375 -733.88824462890625 -707.99334716796875 -587.27740478515625 -431.36785888671875 -424.67816162109375 -603.7864990234375 -800.77984619140625 -821.819580078125 -734.8863525390625 -726.62091064453125 -762.06591796875 -833.69757080078125 -950.419189453125 -1035.6015625 -1115.039794921875 -1206.8526611328125 -1263.29638671875 -1313.40771484375 -1457.234130859375 -1655.53857421875 -1886.3780517578125 -1967.59765625 -1872.2235107421875 -1701.6724853515625 -1527.4051513671875 -1323.4417724609375 -1123.7210693359375 -924.4169921875 -805.94287109375 -763.52484130859375 -793.52392578125 -876.81781005859375 -1094.3460693359375 -1093.040771484375 -950.415283203125 -965.25146484375 -931.7601318359375 -910.57598876953125 -926.271728515625 -921.5927734375 -914.052001953125 -888.25 -804.0330810546875 -834.299072265625 -846.90557861328125 -970.905029296875 -1279.3367919921875 -1550.3841552734375 -1695.0936279296875 -1750.2642822265625 -1541.4344482421875 -1524.262451171875 -1741.389892578125 -1855.735107421875 -2065.72509765625 -2232.2138671875 -2435.882568359375 -2618.20556640625 -2778.73095703125 -2925.475341796875 -3038.20703125 -3114.482177734375 -3142.2080078125 -3001.254150390625 -2962.694091796875 -2979.283447265625 -3022.6728515625 -3012.807373046875 -3069.9853515625 -3122.932373046875 -3144.81982421875 -3145.3271484375 -3084.682373046875 -2996.864013671875 -2927.0888671875 -2812.558837890625 -2718.549072265625 -2574.91259765625 -2438.475830078125 -2347.86083984375 -2246.911865234375 -2178.830810546875 -2151.573486328125 -2124.0283203125 -2126.825927734375 -2125.813720703125 -2107.62109375 -2094.579833984375 -2090.1083984375 -2079.17138671875 -2064.6435546875 -2050.998291015625 -2038.4482421875 -2026.2041015625 -2012.358154296875 -2001.480224609375
427.36663818359375 460.366607666015625 604.8970947265625 715.38946533203125 649.337646484375 607.65673828125 567.04351806640625 556.0999755859375 450.351806640625 383.016021728515625 340.928466796875 295.0068359375 296.411041259765625 303.620361328125 251.5793304443359375 204.073333740234375 145.16790771484375 179.7317657470703125 136.127685546875 101.35062408447265625 83.43025970458984375 77.065185546875 67.8743133544921875 61.50548553466796875 54.280246734619140625 41.28714752197265625 32.51619720458984375 23.0493927001953125 12.431854248046875 3.38111114501953125 -2.3743438720703125 -5.07801055908203125 -4.6894073486328125 -15.4340972900390625 -32.3083648681640625 -46.8120269775390625 -79.8349609375 -138.4060516357421875 -195.48974609375 -240.90966796875 -307.421905517578125 -362.5340576171875 -372.508758544921875 -355.42962646484375 -328.945648193359375 -272.70953369140625 -233.36761474609375 -203.3253173828125 -185.8985595703125 -201.0421142578125 -204.69921875 -201.8280029296875 -183.290496826171875 -139.24798583984375 -116.3259429931640625 -117.8345184326171875 -124.4473724365234375 -143.749786376953125 -187.419342041015625 -256.972015380859375 -334.44091796875 -406.82781982421875 -448.92803955078125 -461.6163330078125 -503.208740234375 -509.78851318359375 -458.93194580078125 -363.489898681640625 -283.544036865234375 -348.393524169921875 -510.9708251953125 -638.6031494140625 -624.783447265625 -507.318603515625 -518.44219970703125 -608.5799560546875 -731.9730224609375 -870.53033447265625 -953.121826171875 -1038.5133056640625 -1134.91943359375 -1200.9388427734375 -1263.14892578125 -1370.2518310546875 -1557.1497802734375 -1793.1883544921875 -1880.4954833984375 -1809.44775390625 -1658.45458984375 -1420.3114013671875 -1164.805908203125 -992.499755859375 -799.0216064453125 -670.79241943359375 -612.0030517578125 -673.94183349609375 -810.40228271484375 -1017.095947265625 -1003.0726318359375 -844.1256103515625 -871.0689697265625 -840.12847900390625 -822.18939208984375 -791.42291259765625 -722.9637451171875 -663.50164794921875 -625.58880615234375 -613.7657470703125 -707.350341796875 -751.80169677734375 -836.70068359375 -1079.46923828125 -1325.593994140625 -1509.8798828125 -1542.6815185546875 -1321.738525390625 -1444.0438232421875 -1713.9718017578125 -1825.2147216796875 -1953.102294921875 -2119.107421875 -2354.32275390625 -2582.165771484375 -2800.96337890625 -2926.5517578125 -2979.95166015625 -3054.287841796875 -3121.29052734375 -2969.29541015625 -2900.35400390625 -2933.4609375 -2982.097900390625 -2956.619384765625 -2995.83447265625 -3021.225830078125 -3059.1162109375 -3103.165283203125 -3138.14990234375 -3093.644775390625 -3018.496337890625 -2915.480712890625 -2833.8076171875 -2735.737548828125 -2618.9453125 -2491.357421875 -2353.7294921875 -2228.263916015625 -2211.001953125 -2178.644287109375 -2220.880615234375 -2199.361572265625 -2150.002685546875 -2096.47509765625 -2061.004638671875 -2052.49658203125 -2040.32177734375 -2026.782470703125 -2017.695068359375 -2006.15576171875 -1996.02734375 -1983.600830078125
385.6756591796875 362.55487060546875 430.49169921875 496.3297119140625 537.89013671875 460.71044921875 459.717498779296875 612.14013671875 617.7550048828125 560.1375732421875 348.83123779296875 303.55859375 330.474365234375 306.15399169921875 223.198974609375 157.198883056640625 151.2277069091796875 180.0929107666015625 164.165069580078125 118.325286865234375 100.06121826171875 85.95359039306640625 77.91306304931640625 71.718231201171875 63.896678924560546875 51.057491302490234375 43.159423828125 34.07190704345703125 21.9815826416015625 10.14998626708984375 1.16007232666015625 -3.17221832275390625 -2.83745574951171875 -10.788116455078125 -30.617218017578125 -51.6631317138671875 -68.275146484375 -95.2080841064453125 -120.5178375244140625 -127.771270751953125 -167.075531005859375 -193.4942626953125 -201.6092529296875 -206.789764404296875 -199.18670654296875 -152.332733154296875 -132.9221954345703125 -123.267791748046875 -110.62091064453125 -108.5301971435546875 -105.496002197265625 -113.8130645751953125 -115.3251800537109375 -99.6810760498046875 -95.433807373046875 -99.6728057861328125 -108.4122161865234375 -157.433807373046875 -240.74652099609375 -351.334564208984375 -414.8023681640625 -429.7916259765625 -433.68658447265625 -405.63238525390625 -359.150360107421875 -300.91424560546875 -262.99053955078125 -224.0643310546875 -225.34991455078125 -324.501739501953125 -419.5391845703125 -446.58343505859375 -393.904022216796875 -312.3978271484375 -370.13897705078125 -469.07958984375 -580.17431640625 -715.25933837890625 -831.01611328125 -960.3289794921875 -1047.802734375 -1113.3153076171875 -1196.550537109375 -1302.094482421875 -1456.7598876953125 -1669.3182373046875 -1755.0067138671875 -1719.7767333984375 -1626.406982421875 -1375.6072998046875 -1062.4342041015625 -871.45721435546875 -675.01922607421875 -510.45819091796875 -464.36993408203125 -563.13055419921875 -775.17425537109375 -979.2198486328125 -915.72900390625 -778.3302001953125 -799.57818603515625 -743.97540283203125 -689.559326171875 -621.939453125 -535.01324462890625 -474.0045166015625 -453.630126953125 -490.8502197265625 -615.01776123046875 -603.294189453125 -649.02166748046875 -868.8565673828125 -1147.8978271484375 -1367.100341796875 -1289.5152587890625 -1171.162109375 -1408.650634765625 -1678.271484375 -1784.2567138671875 -1988.0400390625 -2206.701904296875 -2452.615966796875 -2653.30810546875 -2748.10107421875 -2812.302490234375 -2860.688232421875 -2993.3876953125 -3108.569091796875 -2957.43408203125 -2826.0859375 -2885.243896484375 -2935.02978515625 -2927.463134765625 -2937.917724609375 -2935.477294921875 -2966.621826171875 -3027.22705078125 -3097.1337890625 -3108.7412109375 -3086.57421875 -3012.025390625 -2925.030517578125 -2861.865966796875 -2757.478515625 -2619.097412109375 -2501.642333984375 -2393.685791015625 -2467.450439453125 -2486.5693359375 -2525.590087890625 -2487.7451171875 -2416.605224609375 -2259.03466796875 -2100.7568359375 -2023.870361328125 -2006.525390625 -2002.348388671875 -1995.0234375 -1987.394775390625 -1976.319580078125 -1966.105712890625
404.322845458984375 361.07135009765625 510.332855224609375 579.4141845703125 614.6531982421875 552.1484375 453.3013916015625 346.38525390625 360.63916015625 434.979888916015625 357.56622314453125 358.327392578125 284.61676025390625 243.39093017578125 165.3937530517578125 179.855499267578125 148.27691650390625 146.7756195068359375 159.2945404052734375 138.8013763427734375 125.79586029052734375 106.33866119384765625 96.3513031005859375 87.946685791015625 73.8763427734375 62.704311370849609375 54.17005157470703125 43.709136962890625 32.687103271484375 19.64774322509765625 8.3861236572265625 0.39514923095703125 -2.83167266845703125 -6.65567779541015625 -20.4981689453125 -37.270721435546875 -46.2421417236328125 -67.5579071044921875 -90.847320556640625 -82.747772216796875 -103.875 -107.1308135986328125 -95.6470947265625 -94.6281585693359375 -93.915802001953125 -79.4040069580078125 -82.7634429931640625 -84.6043548583984375 -71.67926025390625 -61.3439178466796875 -54.7355194091796875 -62.2106781005859375 -75.076416015625 -76.6042938232421875 -82.371246337890625 -85.41424560546875 -101.271728515625 -176.965972900390625 -286.061370849609375 -362.6064453125 -380.04071044921875 -360.73095703125 -346.793914794921875 -295.62091064453125 -228.686737060546875 -172.022125244140625 -156.665740966796875 -157.57684326171875 -196.380523681640625 -284.400848388671875 -306.60174560546875 -265.096343994140625 -222.7899169921875 -197.269744873046875 -278.9793701171875 -342.66143798828125 -396.200408935546875 -513.28277587890625 -677.75421142578125 -849.90496826171875 -943.096923828125 -1000.975341796875 -1111.8592529296875 -1223.3857421875 -1343.720458984375 -1523.9649658203125 -1618.8265380859375 -1612.3765869140625 -1556.4432373046875 -1342.0751953125 -1028.342041015625 -809.6605224609375 -562.322021484375 -412.31304931640625 -370.30780029296875 -463.10821533203125 -691.81353759765625 -893.85455322265625 -862.1397705078125 -733.07476806640625 -708.27117919921875 -611.2449951171875 -542.99981689453125 -490.40313720703125 -395.544677734375 -347.773590087890625 -325.44842529296875 -398.543487548828125 -498.10406494140625 -454.89715576171875 -514.00885009765625 -742.468017578125 -1038.722900390625 -1168.443115234375 -1046.10009765625 -1071.6470947265625 -1310.615234375 -1563.055908203125 -1795.1795654296875 -2076.510498046875 -2304.03125 -2401.4453125 -2464.773681640625 -2596.796142578125 -2710.513427734375 -2812.758056640625 -2950.955810546875 -3079.247802734375 -2963.55126953125 -2794.587158203125 -2863.541015625 -2891.76513671875 -2884.224853515625 -2876.824951171875 -2891.01953125 -2903.677734375 -2961.249755859375 -3014.003662109375 -3058.393798828125 -3088.66796875 -3085.108642578125 -3023.16845703125 -2963.4931640625 -2885.26611328125 -2768.03662109375 -2689.134033203125 -2636.534912109375 -2744.888671875 -2779.937255859375 -2788.48193359375 -2735.989501953125 -2655.728271484375 -2492.572509765625 -2265.7275390625 -2069.4697265625 -1981.103759765625 -1970.340087890625 -1968.371826171875 -1958.216796875 -1952.874755859375 -1937.875
331.62249755859375 390.56878662109375 531.7386474609375 542.734619140625 591.8614501953125 474.57421875 449.247314453125 405.4415283203125 277.4617919921875 236.4588623046875 219.9783477783203125 221.1338043212890625 199.398040771484375 177.88189697265625 222.5760955810546875 264.197174072265625 214.738128662109375 136.34271240234375 153.764984130859375 148.55517578125 144.7725677490234375 131.37921142578125 126.8680877685546875 106.03546905517578125 88.48651885986328125 75.28717041015625 63.22151947021484375 52.1625213623046875 43.9270172119140625 31.31771087646484375 18.171539306640625 7.0746002197265625 0.84186553955078125 -3.1850738525390625 -10.1116790771484375 -22.82855224609375 -29.08673095703125 -42.8038177490234375 -67.6674346923828125 -67.4201507568359375 -77.956329345703125 -74.1769866943359375 -54.4022369384765625 -43.8218841552734375 -46.6040191650390625 -50.7841339111328125 -61.3267059326171875 -65.0819854736328125 -56.90740966796875 -49.4165191650390625 -38.7788543701171875 -41.6364898681640625 -53.021331787109375 -59.69580078125 -67.78302001953125 -70.7237548828125 -89.53424072265625 -166.577972412109375 -243.647857666015625 -257.019683837890625 -235.82672119140625 -219.685516357421875 -200.225372314453125 -175.8226318359375 -144.13214111328125 -117.68212890625 -113.765350341796875 -115.321624755859375 -145.382476806640625 -188.69366455078125 -171.94879150390625 -141.5897216796875 -129.8629608154296875 -139.933074951171875 -198.529754638671875 -224.55963134765625 -239.692138671875 -339.17303466796875 -512.18914794921875 -691.45526123046875 -786.19970703125 -879.305908203125 -1017.9969482421875 -1117.754638671875 -1201.4002685546875 -1361.43408203125 -1498.5206298828125 -1538.5137939453125 -1479.314453125 -1266.31494140625 -1011.0303955078125 -736.46746826171875 -505.77740478515625 -369.364105224609375 -333.793365478515625 -396.394134521484375 -579.03826904296875 -763.26531982421875 -794.0989990234375 -663.49578857421875 -591.59844970703125 -483.69964599609375 -421.254150390625 -366.631103515625 -287.147552490234375 -241.7828369140625 -237.949005126953125 -311.977813720703125 -348.3465576171875 -347.045684814453125 -434.03570556640625 -620.25592041015625 -889.7904052734375 -925.9207763671875 -863.84014892578125 -936.9415283203125 -1129.190185546875 -1408.01171875 -1726.983642578125 -2067.782470703125 -2150.5791015625 -2143.15380859375 -2310.2197265625 -2484.281494140625 -2592.16162109375 -2721.829833984375 -2902.845947265625 -3029.306640625 -2996.980224609375 -2820.636474609375 -2825.489013671875 -2840.412353515625 -2825.544921875 -2819.498046875 -2864.201416015625 -2856.56298828125 -2887.86376953125 -2920.951416015625 -3010.600830078125 -3055.284423828125 -3078.440673828125 -3079.636474609375 -3034.594970703125 -2965.662353515625 -2893.410888671875 -2854.5224609375 -2865.424560546875 -2939.71533203125 -2953.16845703125 -2923.552734375 -2855.02685546875 -2761.47314453125 -2668.1298828125 -2497.904541015625 -2240.42724609375 -1998.550537109375 -1939.138671875 -1929.4892578125 -1936.117919921875 -1934.0010986328125 -1906.95654296875
412.1373291015625 351.625091552734375 389.4432373046875 565.4415283203125 615.044189453125 582.29400634765625 578.6451416015625 654.0418701171875 452.8389892578125 357.29620361328125 293.724334716796875 227.161834716796875 251.77166748046875 219.736541748046875 327.993408203125 591.3363037109375 613.6949462890625 284.90789794921875 178.9873199462890625 182.4196014404296875 169.349029541015625 145.833221435546875 134.65655517578125 133.84613037109375 116.77552032470703125 86.7982330322265625 72.48974609375 62.544139862060546875 55.972164154052734375 43.92816162109375 30.243896484375 18.30462646484375 9.8935699462890625 3.3606109619140625 -3.95233154296875 -12.517120361328125 -16.051422119140625 -21.9747772216796875 -41.7528533935546875 -49.95257568359375 -56.908599853515625 -54.43963623046875 -37.2790374755859375 -28.212371826171875 -31.22381591796875 -42.0903167724609375 -53.37127685546875 -56.4862213134765625 -51.7854461669921875 -44.35504150390625 -35.93768310546875 -34.72454833984375 -42.2848968505859375 -48.43048095703125 -57.2098388671875 -62.1036224365234375 -75.51824951171875 -108.8841552734375 -141.027557373046875 -121.6557464599609375 -104.6744384765625 -97.7907867431640625 -91.33074951171875 -96.554229736328125 -97.8463134765625 -94.62567138671875 -89.03472900390625 -82.60009765625 -85.5121307373046875 -94.6383209228515625 -85.2386932373046875 -86.98583984375 -91.2340240478515625 -96.64312744140625 -124.4900970458984375 -137.1758880615234375 -151.484710693359375 -239.160125732421875 -386.911956787109375 -497.7364501953125 -598.78619384765625 -752.318359375 -902.94549560546875 -965.3463134765625 -1006.89404296875 -1187.4896240234375 -1381.50390625 -1469.6796875 -1424.504638671875 -1196.3194580078125 -919.4381103515625 -681.305419921875 -463.13372802734375 -350.899993896484375 -316.791015625 -356.586181640625 -460.435546875 -609.07080078125 -650.05072021484375 -534.1063232421875 -472.083984375 -384.688018798828125 -304.60064697265625 -234.50726318359375 -163.010650634765625 -149.1634521484375 -171.2335205078125 -204.390899658203125 -212.94287109375 -270.30755615234375 -409.87652587890625 -568.821533203125 -669.26251220703125 -705.86376953125 -684.481689453125 -754.76702880859375 -962.2158203125 -1283.6766357421875 -1669.3699951171875 -1893.9229736328125 -1908.1458740234375 -2020.985595703125 -2189.728759765625 -2277.351318359375 -2412.041015625 -2634.883056640625 -2807.775390625 -2950.134765625 -2999.37646484375 -2819.677490234375 -2765.55224609375 -2780.043701171875 -2739.329345703125 -2773.708984375 -2827.35400390625 -2792.435302734375 -2826.373291015625 -2904.662109375 -2983.002685546875 -2992.749755859375 -2988.584716796875 -3050.599853515625 -3056.5791015625 -3034.392578125 -2974.463623046875 -2960.4541015625 -3013.246337890625 -3018.06005859375 -3016.97314453125 -2999.268310546875 -2952.906005859375 -2850.94677734375 -2758.171142578125 -2627.943115234375 -2384.692626953125 -2099.202880859375 -1980.405029296875 -1999.358154296875 -2068.83447265625 -2066.442626953125 -1977.687744140625
268.091796875 267.042083740234375 350.30108642578125 472.25885009765625 640.5360107421875 703.861572265625 719.6239013671875 718.12786865234375 694.05535888671875 555.842529296875 423.342742919921875 228.3604736328125 306.860260009765625 350.03839111328125 424.84808349609375 626.7747802734375 601.911376953125 483.69622802734375 309.44775390625 208.428436279296875 195.5504302978515625 166.332305908203125 147.617523193359375 138.40740966796875 133.42254638671875 107.97133636474609375 87.936676025390625 73.5477142333984375 67.40824127197265625 58.295684814453125 45.21656036376953125 32.1817626953125 24.1515960693359375 13.3360137939453125 4.1053924560546875 -2.7612762451171875 -6.62596893310546875 -9.58989715576171875 -24.198272705078125 -34.6760101318359375 -40.957611083984375 -39.136962890625 -27.6909332275390625 -20.6627197265625 -24.434967041015625 -36.361175537109375 -49.3524932861328125 -51.4330291748046875 -45.2413787841796875 -39.987701416015625 -33.66754150390625 -32.469635009765625 -38.1949615478515625 -43.6670684814453125 -51.860931396484375 -61.9313812255859375 -68.5041656494140625 -74.1898956298828125 -81.495025634765625 -67.7742462158203125 -59.095489501953125 -55.738616943359375 -52.087188720703125 -60.1788787841796875 -68.787200927734375 -68.7433624267578125 -64.82904052734375 -58.7563323974609375 -55.488800048828125 -54.3313140869140625 -52.35638427734375 -59.564605712890625 -62.7923126220703125 -60.95111083984375 -71.9310302734375 -83.863494873046875 -107.3845672607421875 -186.923583984375 -279.68157958984375 -334.304779052734375 -437.7218017578125 -614.5755615234375 -740.5653076171875 -765.80950927734375 -797.93280029296875 -989.7557373046875 -1228.7156982421875 -1350.4124755859375 -1343.412109375 -1098.81494140625 -839.70208740234375 -623.253173828125 -432.19854736328125 -320.503082275390625 -289.322479248046875 -311.785491943359375 -365.113189697265625 -464.785888671875 -483.26934814453125 -401.865966796875 -370.256378173828125 -278.828765869140625 -194.019805908203125 -119.9546661376953125 -86.33587646484375 -96.30255126953125 -116.7554168701171875 -119.9938812255859375 -137.705535888671875 -217.683929443359375 -401.5640869140625 -471.94671630859375 -413.1009521484375 -422.77801513671875 -417.427001953125 -632.36688232421875 -933.101806640625 -1255.2860107421875 -1520.3641357421875 -1568.03466796875 -1676.70849609375 -1790.406982421875 -1906.675537109375 -2094.182861328125 -2318.64794921875 -2513.522705078125 -2640.153076171875 -2860.953125 -2950.919189453125 -2765.2373046875 -2715.842529296875 -2691.853515625 -2640.457275390625 -2738.64892578125 -2742.312744140625 -2732.889404296875 -2840.25439453125 -2897.88671875 -2902.837646484375 -2904.5048828125 -2860.228271484375 -2936.4365234375 -2984.506103515625 -3050.169921875 -3042.4208984375 -3038.354248046875 -3039.942626953125 -2962.70751953125 -2917.629150390625 -2906.11181640625 -2961.9970703125 -2929.86669921875 -2816.610107421875 -2652.349609375 -2506.757080078125 -2287.664794921875 -2226.493408203125 -2329.56689453125 -2415.9306640625 -2419.117919921875 -2289.78271484375
279.71893310546875 292.652801513671875 280.747039794921875 355.3328857421875 426.730682373046875 525.049072265625 582.2850341796875 718.5523681640625 722.2327880859375 649.21417236328125 506.77587890625 324.74298095703125 280.26123046875 271.07696533203125 334.6923828125 543.4715576171875 654.82354736328125 570.2578125 590.563720703125 336.6246337890625 240.967254638671875 214.4086456298828125 168.6299591064453125 140.1533050537109375 137.0228118896484375 134.0787353515625 132.569610595703125 109.35984039306640625 83.19699859619140625 71.17083740234375 57.489246368408203125 46.40764617919921875 38.40380096435546875 28.0260162353515625 18.638946533203125 12.1133575439453125 3.61945343017578125 -1.82225799560546875 -10.96662139892578125 -21.5589752197265625 -26.322540283203125 -24.4638671875 -16.7219085693359375 -13.5591583251953125 -18.109222412109375 -28.45672607421875 -39.013916015625 -43.41680908203125 -39.1907806396484375 -33.7002410888671875 -30.62701416015625 -31.376007080078125 -36.84674072265625 -42.3000030517578125 -49.246795654296875 -62.5392303466796875 -74.4310302734375 -77.5717620849609375 -78.89312744140625 -72.359405517578125 -63.23980712890625 -54.7298583984375 -45.3634185791015625 -43.5684356689453125 -45.0915985107421875 -43.090911865234375 -42.6047515869140625 -43.3103485107421875 -42.7570953369140625 -39.36785888671875 -36.111236572265625 -37.373016357421875 -38.1806793212890625 -34.0774383544921875 -37.6954193115234375 -50.6415252685546875 -69.8938140869140625 -118.124481201171875 -175.472900390625 -210.46624755859375 -310.540496826171875 -457.92132568359375 -531.2603759765625 -546.75823974609375 -594.07763671875 -777.78033447265625 -998.6112060546875 -1119.807373046875 -1116.238037109375 -957.0596923828125 -729.37200927734375 -557.8037109375 -385.763671875 -278.199493408203125 -241.1748046875 -250.52642822265625 -273.641632080078125 -320.77490234375 -324.977386474609375 -278.94317626953125 -236.68438720703125 -163.29852294921875 -107.5358123779296875 -72.90142822265625 -62.7768402099609375 -77.1483154296875 -92.264862060546875 -95.87451171875 -108.04132080078125 -157.969451904296875 -273.97235107421875 -313.744415283203125 -222.342681884765625 -213.923431396484375 -314.498199462890625 -618.4417724609375 -911.6806640625 -1094.30029296875 -1213.1685791015625 -1259.2628173828125 -1373.1146240234375 -1434.99755859375 -1652.8448486328125 -1959.705078125 -2189.83642578125 -2307.57177734375 -2477.515869140625 -2728.49609375 -2870.662353515625 -2749.038330078125 -2635.51318359375 -2545.28564453125 -2526.265625 -2669.80615234375 -2670.39453125 -2748.7431640625 -2834.2568359375 -2805.89453125 -2789.906005859375 -2826.375244140625 -2748.70751953125 -2792.095947265625 -2807.665283203125 -2858.6513671875 -2961.937255859375 -2982.78125 -2945.070556640625 -2870.555419921875 -2743.933837890625 -2765.46826171875 -2884.117919921875 -2958.567138671875 -2898.1953125 -2757.025390625 -2661.90966796875 -2574.9619140625 -2656.940185546875 -2739.0224609375 -2773.73583984375 -2777.419189453125 -2686.471923828125
372.88397216796875 352.2559814453125 322.538360595703125 310.692962646484375 322.8468017578125 397.752471923828125 435.936431884765625 483.471923828125 616.91278076171875 583.11700439453125 387.77520751953125 518.5712890625 483.071868896484375 536.858642578125 543.14569091796875 559.15325927734375 477.301544189453125 579.85369873046875 588.51611328125 476.883514404296875 388.77178955078125 258.68084716796875 176.0830078125 156.0471954345703125 176.860198974609375 200.0099639892578125 193.804168701171875 167.81195068359375 112.5648193359375 89.92516326904296875 72.58062744140625 59.970554351806640625 53.455410003662109375 42.97949981689453125 36.68503570556640625 30.55521392822265625 21.11243438720703125 11.8963470458984375 1.60933685302734375 -7.7417755126953125 -11.467559814453125 -11.16902923583984375 -7.97293853759765625 -7.8277130126953125 -12.54001617431640625 -19.509613037109375 -26.6788482666015625 -32.0774993896484375 -31.335784912109375 -28.1913604736328125 -27.250579833984375 -29.604339599609375 -35.3289642333984375 -41.9109649658203125 -48.4091033935546875 -61.0525970458984375 -77.248687744140625 -83.817718505859375 -85.1243438720703125 -79.7221527099609375 -69.0531005859375 -56.9303741455078125 -43.54608154296875 -34.664093017578125 -30.3579254150390625 -27.1012420654296875 -26.462127685546875 -29.489166259765625 -30.436126708984375 -28.289947509765625 -22.7338104248046875 -20.3939208984375 -19.3309783935546875 -14.76871490478515625 -13.0433807373046875 -25.070281982421875 -34.7683258056640625 -57.81353759765625 -96.43658447265625 -116.973602294921875 -173.98406982421875 -259.380157470703125 -287.427703857421875 -325.698944091796875 -411.14678955078125 -560.43212890625 -739.87371826171875 -829.91168212890625 -818.30316162109375 -722.9989013671875 -582.45001220703125 -442.9578857421875 -308.41156005859375 -211.760406494140625 -172.56494140625 -175.651519775390625 -172.230621337890625 -166.41741943359375 -165.843109130859375 -145.5006103515625 -119.241973876953125 -77.6244964599609375 -69.9472503662109375 -58.022003173828125 -58.0029754638671875 -71.411224365234375 -83.961029052734375 -87.207733154296875 -87.882568359375 -98.6898651123046875 -128.3237457275390625 -149.36029052734375 -126.4495697021484375 -182.82025146484375 -342.809600830078125 -579.7393798828125 -729.279296875 -786.96099853515625 -869.33001708984375 -971.9815673828125 -1131.26953125 -1284.6689453125 -1542.77099609375 -1803.5401611328125 -1990.198974609375 -2141.031982421875 -2376.4189453125 -2595.5712890625 -2776.296142578125 -2727.405517578125 -2525.785888671875 -2322.321044921875 -2386.430419921875 -2563.24462890625 -2665.065185546875 -2751.8291015625 -2731.5087890625 -2652.16748046875 -2617.228759765625 -2755.5625 -2678.46240234375 -2631.807861328125 -2659.826171875 -2543.801513671875 -2611.1796875 -2659.0634765625 -2712.320556640625 -2737.0322265625 -2591.596435546875 -2647.655517578125 -2682.262939453125 -2824.907958984375 -2951.491943359375 -2915.450439453125 -2858.884521484375 -2880.2734375 -2910.22802734375 -2890.744140625 -2876.2197265625 -2864.58642578125 -2865.84375
478.552032470703125 454.751312255859375 462.55731201171875 492.481048583984375 376.950042724609375 341.3651123046875 369.687835693359375 437.300567626953125 501.495086669921875 511.991241455078125 461.28118896484375 539.048095703125 635.64178466796875 858.11981201171875 882.976318359375 995.336181640625 831.43487548828125 621.54498291015625 710.41766357421875 686.7315673828125 673.375 477.826202392578125 302.544891357421875 258.38238525390625 196.362091064453125 174.4042205810546875 171.2570037841796875 154.3202056884765625 133.393402099609375 120.684112548828125 107.69058990478515625 81.93454742431640625 69.6223907470703125 57.484039306640625 52.084140777587890625 47.32688140869140625 39.89528656005859375 28.66515350341796875 16.52878570556640625 6.09377288818359375 1.314788818359375 -1.28411102294921875 -1.120269775390625 -3.02054595947265625 -7.21205902099609375 -10.9051513671875 -16.0641326904296875 -20.9462127685546875 -22.705413818359375 -22.5821533203125 -22.6157073974609375 -27.0347747802734375 -33.3220367431640625 -40.3287200927734375 -47.535064697265625 -58.2294464111328125 -72.4118194580078125 -78.4518890380859375 -79.114837646484375 -74.0726776123046875 -63.8814849853515625 -51.2583465576171875 -38.751220703125 -29.4364471435546875 -23.3244476318359375 -20.6341705322265625 -20.2047882080078125 -20.4489593505859375 -19.4755859375 -16.56866455078125 -12.3923187255859375 -9.13580322265625 -8.46581268310546875 -6.09423065185546875 -2.472747802734375 -10.6548309326171875 -20.006622314453125 -34.71343994140625 -50.5323944091796875 -48.3324432373046875 -70.1071929931640625 -109.5207977294921875 -125.390380859375 -184.411163330078125 -283.518585205078125 -419.3690185546875 -566.76458740234375 -628.0096435546875 -594.13531494140625 -523.38262939453125 -411.2449951171875 -301.132354736328125 -202.340118408203125 -138.7573394775390625 -121.400909423828125 -117.620758056640625 -104.881134033203125 -89.03668212890625 -86.39947509765625 -81.6687469482421875 -63.8939208984375 -46.8216400146484375 -50.798431396484375 -54.30108642578125 -59.604095458984375 -69.7595672607421875 -76.3037109375 -77.77239990234375 -76.8885498046875 -75.477935791015625 -70.497894287109375 -76.6700439453125 -78.9689483642578125 -166.1070556640625 -295.592254638671875 -406.53955078125 -483.71746826171875 -543.3160400390625 -621.41790771484375 -816.958740234375 -1071.3048095703125 -1284.4481201171875 -1455.186279296875 -1665.2889404296875 -1905.48681640625 -2125.1640625 -2293.3427734375 -2449.53173828125 -2641.822265625 -2682.00048828125 -2505.818115234375 -2172.6630859375 -2198.54296875 -2442.593994140625 -2635.891357421875 -2647.7099609375 -2591.0498046875 -2482.801025390625 -2466.036865234375 -2693.134033203125 -2624.156494140625 -2466.139892578125 -2559.399169921875 -2401.508056640625 -2274.87353515625 -2244.56494140625 -2407.97021484375 -2507.32470703125 -2400.32275390625 -2423.805908203125 -2410.053955078125 -2537.43603515625 -2772.162109375 -2943.56298828125 -2949.36962890625 -2890.563720703125 -2820.609130859375 -2778.195068359375 -2768.5732421875 -2759.039306640625 -2812.97216796875
