NCOLS 681
NROWS 35
XLLCORNER 688715.16755
YLLCORNER 4322163.4384
CELLSIZE 30 
NODATA_value -3.4e+38 
494 509 521 534 542 542 535 538 543 557 560 563 562 550 545 541 538 533 532 541 544 547 548 551 552 555 554 553 555 559 561 564 565 560 557 555 555 555 553 551 549 551 554 555 556 554 554 552 551 548 544 540 537 535 534 531 526 523 516 512 508 503 479 476 475 473 470 467 464 460 455 451 445 441 431 428 427 424 428 437 445 459 474 483 496 502 503 506 512 517 521 522 520 517 518 516 513 512 509 507 507 506 507 507 509 506 504 504 503 503 497 501 500 497 489 485 484 483 484 484 483 481 476 477 474 471 462 461 460 458 452 435 431 429 427 440 455 460 463 470 470 470 469 468 469 470 465 455 449 444 441 444 450 456 460 461 460 460 457 450 448 444 438 427 427 432 439 450 453 454 454 455 453 452 450 441 433 428 427 431 437 441 443 441 443 444 445 445 444 444 445 451 452 453 450 447 446 445 444 438 431 428 425 423 423 426 429 430 427 427 429 433 437 437 436 435 437 435 433 432 430 427 423 421 417 414 413 413 415 416 420 422 421 420 417 414 407 410 412 410 400 391 383 383 388 388 388 387 384 385 385 386 391 394 398 401 403 404 406 407 411 413 413 412 417 419 417 418 419 418 416 420 420 419 418 417 417 418 418 416 413 408 404 403 402 399 398 396 395 394 393 394 395 393 394 395 394 391 391 390 390 385 384 385 390 391 389 383 383 379 375 370 356 353 358 363 367 371 373 375 374 374 372 370 371 369 368 367 364 365 363 360 357 353 352 352 351 350 345 343 344 344 344 346 346 347 347 348 347 347 339 335 331 327 323 321 319 317 309 305 300 295 294 295 293 289 285 286 285 282 270 264 261 261 270 282 288 290 292 293 297 303 315 318 317 316 317 318 318 317 316 317 316 318 320 323 323 322 318 318 319 319 317 317 314 312 311 311 311 307 304 303 297 290 287 289 291 293 293 290 288 286 282 269 266 266 265 260 258 258 258 247 242 239 237 237 235 234 232 231 230 229 227 223 222 221 222 222 220 219 219 221 222 221 220 218 217 217 216 216 215 215 216 217 218 218 219 221 220 221 223 226 227 227 228 234 236 236 236 242 246 247 247 239 232 224 218 214 203 197 192 191 185 180 177 178 176 173 172 172 172 168 163 156 146 145 147 152 156 154 151 147 151 159 158 153 139 129 128 126 124 122 122 125 122 125 131 137 150 160 172 182 201 203 200 197 193 188 186 186 189 193 199 205 213 220 224 227 229 228 225 222 222 222 225 228 238 247 255 259 259 255 253 251 249 247 247 247 246 245 244 244 241 231 228 225 224 222 221 219 215 197 184 184 178 173 168 166 159 164 167 171 186 205 214 222 228 233 230 230 231 228 225 222 219 211 206 200 195 189 188 187 188 188 189 192 195 193 180 167 160 154 149 144 143 144 143 142 141 138 126 122 119 118 122 126 133 140 156 161 158 151 140 136 133 128 117 114 113 113 109 107 103 100 96 95 93 92 91 89 89 88 86 86 87 85 82 81 77 73 67 61 59 58 57 58 57 57 63 65 64
508 523 535 547 557 559 558 558 560 563 564 565 566 555 550 540 536 534 538 541 544 555 558 560 561 567 567 567 566 565 568 567 566 561 557 555 555 554 553 552 549 551 551 551 552 552 551 548 547 546 542 542 541 538 537 533 529 524 513 505 498 490 479 465 463 460 455 449 445 443 437 432 429 428 425 424 427 425 433 444 457 471 489 495 504 507 507 507 512 515 522 523 521 521 520 518 516 515 511 510 509 509 510 512 509 505 503 502 503 503 503 502 499 498 491 488 487 485 485 486 483 482 480 475 475 472 467 460 457 451 447 431 427 425 424 441 457 462 467 470 471 472 472 471 468 468 465 449 446 445 444 450 455 458 460 462 461 461 457 449 446 440 434 428 431 437 443 451 452 453 455 454 454 452 449 443 436 432 431 435 440 447 448 446 446 447 447 445 444 444 445 451 452 453 452 449 448 447 447 445 438 433 431 426 432 435 434 434 430 430 431 434 436 437 437 437 438 437 434 432 429 426 423 421 419 419 418 416 414 417 420 422 420 419 418 416 411 413 413 410 399 388 381 378 379 380 383 383 386 386 386 386 390 392 394 395 399 402 405 408 411 412 413 413 417 420 420 421 419 417 418 420 422 420 419 417 417 417 418 416 414 410 408 407 406 404 402 402 401 402 400 397 394 393 393 394 392 389 389 388 382 377 378 382 383 385 384 381 379 377 374 367 356 355 359 363 367 370 372 373 373 373 372 370 370 371 371 369 367 363 360 354 353 353 353 354 353 353 348 345 343 343 342 343 345 344 344 346 348 347 339 334 331 327 320 320 318 314 307 300 294 289 285 279 278 278 280 280 281 278 264 261 261 264 281 291 296 298 304 304 307 311 316 317 316 316 316 318 319 319 317 317 318 318 323 324 324 322 317 317 315 315 317 316 316 313 306 305 305 303 302 299 293 285 280 281 284 288 289 287 289 286 283 269 265 263 261 258 254 252 250 243 239 239 236 237 236 235 233 233 232 230 229 224 224 224 223 223 222 221 221 222 222 222 221 219 217 217 216 216 216 216 216 215 215 215 218 220 220 222 225 227 228 227 227 231 234 236 237 239 245 246 247 246 233 224 218 214 202 196 192 193 192 189 185 182 174 171 171 171 176 173 168 161 152 151 154 160 167 168 169 164 161 159 160 152 139 132 131 128 125 126 125 126 121 123 125 126 140 152 165 177 197 198 197 197 192 186 184 183 183 186 191 196 207 212 217 219 219 215 216 218 220 222 223 227 233 246 253 258 260 260 260 259 258 256 254 252 251 252 253 254 251 243 237 233 229 223 219 215 208 189 186 186 186 180 173 169 168 169 170 176 186 207 213 218 224 229 229 229 229 222 218 215 211 201 197 192 186 179 177 174 173 171 173 178 181 181 167 160 156 153 145 141 138 138 139 137 134 131 124 122 117 117 123 127 135 143 160 164 161 154 145 140 136 132 124 117 115 114 106 102 101 99 93 92 91 92 91 89 89 90 88 86 85 84 83 82 81 77 67 69 60 59 58 59 58 57 64 68 68
519 535 548 559 568 579 580 578 576 568 568 568 567 555 543 541 542 540 545 550 552 555 565 564 568 572 572 572 569 568 570 569 567 563 561 559 557 553 552 551 550 550 550 549 550 549 549 544 542 542 538 536 534 533 534 533 530 524 503 494 482 474 468 465 454 450 442 436 433 432 428 428 426 425 425 427 429 431 440 453 469 482 500 508 511 512 513 515 517 520 523 521 521 522 522 520 520 519 516 515 513 511 509 510 509 505 503 502 502 503 505 504 502 495 489 490 489 488 489 488 485 483 482 477 474 471 464 450 442 436 431 424 423 423 425 443 455 461 466 470 470 470 469 464 462 461 456 449 446 448 450 450 452 455 460 463 463 461 458 452 448 441 436 434 438 444 450 454 455 456 456 452 452 449 446 440 435 432 429 432 436 442 449 450 449 448 447 448 444 444 448 448 450 450 450 449 447 445 443 441 437 438 434 432 437 442 442 439 435 437 438 438 435 438 439 438 437 437 436 434 430 428 425 424 422 421 419 418 418 420 423 422 421 420 419 417 414 412 409 407 394 386 381 377 376 375 376 379 383 387 388 389 393 395 396 396 396 398 400 403 406 410 411 412 415 423 425 423 420 418 418 419 422 419 418 417 417 416 416 415 414 414 413 410 408 403 401 401 400 399 399 396 394 393 392 392 391 390 390 386 379 376 374 374 378 378 378 378 377 374 370 364 355 355 359 363 366 371 372 374 376 376 374 374 373 371 368 366 366 363 354 353 351 350 350 349 350 350 346 345 344 343 343 342 342 341 343 345 343 344 338 335 331 326 320 317 317 315 308 300 295 289 273 267 266 269 275 277 274 269 263 263 267 273 289 295 298 299 305 306 312 318 322 321 321 321 320 320 319 319 318 318 318 320 323 322 322 323 319 317 316 316 316 313 310 305 303 300 299 297 298 301 296 289 283 278 278 280 282 285 286 283 280 271 268 264 261 255 250 246 243 239 238 237 236 237 234 234 234 234 234 232 230 226 225 222 224 224 224 224 224 221 221 221 220 218 216 215 215 215 215 214 215 218 215 215 215 217 219 222 226 225 226 228 227 228 231 232 234 235 243 246 245 242 229 225 222 217 205 200 197 196 195 192 189 186 176 172 172 172 178 179 174 167 157 156 155 161 170 172 174 174 168 164 160 160 141 134 130 128 123 123 124 122 122 121 120 121 135 147 159 171 189 194 195 194 188 183 180 180 181 187 190 193 196 209 215 218 214 213 215 217 218 219 223 228 231 239 246 252 254 257 260 265 266 264 261 259 257 257 258 257 255 252 250 246 242 234 227 218 209 185 183 186 186 182 179 177 176 177 178 185 194 207 212 215 218 226 228 229 229 220 215 211 206 196 192 186 178 173 165 163 162 161 160 163 165 166 159 154 150 149 145 139 134 133 131 127 125 123 121 119 117 115 123 132 141 151 166 168 166 160 147 141 138 136 129 121 116 112 103 102 101 100 99 99 99 99 94 91 90 90 87 86 84 84 83 84 85 82 76 69 61 58 59 60 61 61 63 72 74
531 548 557 566 573 579 580 578 575 566 565 563 562 550 540 537 538 546 549 554 557 562 565 566 567 571 570 567 568 566 568 571 568 565 561 559 558 556 553 553 552 552 551 548 544 540 536 536 537 536 532 527 525 523 521 518 512 502 480 472 470 467 463 459 454 440 434 431 432 432 434 437 436 439 430 430 432 436 450 467 481 497 513 514 516 518 524 524 525 526 525 522 523 523 521 518 517 515 515 515 514 512 508 507 506 505 503 502 502 503 504 503 501 495 492 489 488 486 488 488 487 486 484 474 467 463 455 441 429 425 424 426 427 429 434 452 459 467 469 469 468 467 468 464 460 456 451 447 448 448 457 453 451 453 457 460 460 459 458 456 453 449 446 444 447 448 451 453 455 455 455 452 450 448 447 444 436 433 428 427 436 443 447 451 450 449 448 448 446 447 448 452 454 452 452 450 446 444 440 436 432 433 436 436 435 438 439 441 439 441 443 441 438 438 440 441 440 439 439 438 432 430 428 427 426 425 423 423 421 422 423 423 421 422 421 421 420 417 415 412 397 388 383 380 379 377 377 379 378 385 389 391 393 394 394 396 397 398 400 402 406 411 411 412 415 421 423 424 423 421 421 421 421 419 420 419 417 416 415 414 412 409 409 408 406 403 401 399 398 396 393 391 390 388 389 391 391 388 387 383 378 375 375 373 375 376 377 378 375 371 366 359 355 355 359 367 369 371 373 375 377 378 375 373 370 370 368 366 364 360 358 358 356 353 350 346 342 342 343 341 341 339 338 338 340 343 345 348 345 342 339 335 330 323 317 317 315 316 311 305 299 287 270 264 264 265 269 268 266 265 265 268 272 278 293 299 305 305 307 310 314 320 325 325 325 325 326 325 323 322 321 319 317 318 319 322 322 322 319 318 315 316 315 314 309 303 298 295 294 294 299 303 299 293 287 276 274 274 277 280 277 276 275 270 266 263 261 254 250 246 242 241 239 239 238 237 238 237 234 232 232 232 230 227 226 225 225 226 225 225 224 222 220 220 220 218 217 215 214 214 213 213 214 214 215 215 215 215 217 219 222 223 229 231 229 228 228 230 232 233 238 242 243 240 230 228 226 221 212 207 201 197 197 194 189 183 176 175 174 173 178 180 180 176 164 161 159 162 173 178 180 180 175 171 166 160 142 137 132 129 126 125 123 124 120 120 120 121 131 139 149 159 170 185 186 185 182 176 175 177 180 188 191 193 197 208 210 211 208 206 205 207 212 220 225 228 227 232 236 242 244 245 251 259 267 269 266 266 265 261 258 255 253 251 251 252 251 244 241 226 219 190 186 186 186 184 183 182 183 191 194 195 200 208 212 212 215 222 226 227 224 220 210 204 198 193 185 180 173 167 155 152 149 150 153 156 157 157 153 149 145 143 141 138 133 131 129 127 124 122 119 117 116 115 131 146 156 165 172 173 170 165 155 153 151 145 131 123 119 117 107 104 103 104 105 107 107 105 96 94 93 90 86 86 84 82 83 83 82 81 79 68 61 62 63 63 65 66 68 76 81
535 555 566 574 577 574 573 572 570 564 561 558 555 546 542 539 539 551 554 557 563 566 568 566 569 572 570 568 568 566 567 568 568 566 560 557 555 552 550 549 547 546 544 540 534 528 524 527 528 526 519 516 511 504 494 490 482 477 468 465 461 459 450 445 442 440 434 441 446 453 456 458 463 464 447 441 437 437 454 464 478 492 509 513 517 522 530 530 530 530 530 528 528 525 524 518 517 516 516 515 514 512 511 507 507 508 508 503 502 505 505 501 498 495 493 487 485 484 487 491 490 486 480 460 456 450 447 431 422 420 425 437 444 448 450 462 467 468 469 468 468 466 465 464 460 454 448 443 451 454 457 455 454 459 462 463 463 462 460 457 455 454 454 451 451 448 450 448 450 453 456 456 450 447 444 441 440 438 434 432 438 444 449 453 454 454 454 452 450 450 451 452 454 454 452 450 448 447 443 437 433 434 435 435 428 428 435 436 438 441 441 439 443 439 440 441 441 441 441 441 433 431 429 428 427 427 428 429 426 424 424 423 422 422 417 418 419 419 419 418 416 402 392 388 386 382 381 380 380 384 388 393 398 400 400 401 400 402 404 406 408 413 414 416 417 419 419 420 421 422 421 420 421 420 420 419 417 415 415 414 413 411 409 408 408 407 405 402 401 394 390 388 388 386 387 390 391 388 385 384 383 377 375 376 375 377 377 376 372 367 363 359 356 354 362 367 373 372 375 376 376 377 373 370 368 367 367 367 364 359 356 356 354 350 347 342 340 338 336 335 334 332 329 335 339 342 343 342 343 340 337 333 329 324 317 315 315 312 307 300 292 285 271 266 267 269 266 265 267 269 277 282 286 289 303 311 316 317 317 318 319 320 323 327 326 324 323 322 321 320 320 318 317 317 318 320 322 319 320 317 316 317 317 314 308 301 296 292 290 292 296 298 297 295 291 277 273 271 272 273 274 275 273 268 267 264 260 252 251 250 247 245 241 240 240 239 238 237 235 229 229 231 231 228 227 226 226 225 224 223 222 221 220 219 219 218 216 215 214 215 213 214 214 215 215 214 214 216 221 220 222 224 230 230 226 225 228 230 230 232 235 236 239 239 234 232 229 224 216 212 206 199 193 191 187 184 178 176 174 173 176 178 181 182 173 170 167 169 175 178 180 180 178 176 170 161 142 138 133 130 128 124 123 121 119 119 120 121 123 132 140 151 161 176 178 176 172 170 172 178 183 191 193 198 201 210 209 204 198 189 193 197 203 215 221 226 227 232 232 232 232 235 241 251 264 272 266 264 265 263 260 256 254 253 252 251 250 242 240 234 220 193 188 188 186 185 186 189 193 199 200 201 204 205 211 212 213 213 217 218 216 213 205 200 196 190 184 179 173 165 155 147 141 142 144 145 145 144 143 141 140 139 137 135 132 131 131 128 124 121 118 118 116 118 131 156 167 173 171 169 167 164 158 157 154 149 135 128 124 120 112 111 111 113 118 119 116 110 107 103 97 90 87 86 86 85 84 85 84 81 76 72 64 62 63 64 65 65 67 80 84
550 569 580 586 586 575 568 566 563 559 556 554 551 547 537 536 541 550 560 562 567 570 569 569 569 573 569 572 572 571 568 565 566 564 558 555 554 552 546 546 542 539 533 529 523 514 509 507 508 509 504 498 490 486 478 473 465 458 452 449 447 446 440 439 438 437 440 441 471 477 483 476 479 481 467 458 449 441 441 460 468 478 496 505 512 518 525 532 531 531 531 530 529 526 523 516 514 513 513 516 514 513 511 510 510 512 513 508 505 505 509 500 497 492 490 489 486 483 476 481 482 474 466 449 446 445 441 426 421 425 432 453 459 461 462 468 471 472 471 469 469 466 463 462 458 455 453 458 463 464 461 455 455 458 461 465 464 463 462 461 458 457 456 456 454 452 451 447 446 447 450 452 448 445 444 444 445 444 439 436 437 443 449 453 456 457 456 455 453 453 453 454 457 454 456 455 452 450 447 443 440 439 435 429 423 424 426 434 442 443 441 442 442 441 441 442 444 442 440 441 436 433 431 429 428 427 427 427 424 421 419 418 417 416 417 405 408 413 413 413 413 410 405 402 399 393 389 385 382 381 384 390 395 401 403 402 402 406 408 410 410 412 412 417 419 422 422 420 420 420 421 420 422 421 420 419 418 415 415 414 412 410 409 408 408 407 405 402 402 395 393 393 395 392 391 391 390 384 383 380 382 379 378 376 376 374 370 370 369 368 362 359 357 358 369 372 373 374 376 376 374 373 369 367 365 364 362 361 359 355 351 351 349 346 345 345 344 339 332 329 327 326 329 334 338 340 341 339 337 335 333 331 327 323 317 314 311 312 300 293 288 282 272 273 276 278 271 269 271 275 286 292 296 298 305 319 322 321 321 322 322 323 324 325 323 322 320 319 318 318 318 318 317 316 317 317 319 319 317 317 317 317 317 311 306 299 293 284 284 286 291 294 294 294 291 283 276 272 270 268 269 270 271 267 265 263 259 252 250 249 248 245 242 241 241 240 240 238 235 229 229 230 232 230 226 225 224 225 223 222 221 221 221 219 218 216 215 215 215 216 215 215 215 215 214 213 213 215 220 219 219 222 227 226 225 225 226 228 230 231 235 234 234 234 238 235 231 228 221 218 214 207 195 193 189 186 178 174 172 172 175 176 179 182 185 183 177 175 175 176 178 180 180 179 176 169 157 138 131 128 125 122 121 120 118 115 116 117 119 126 132 141 152 165 167 166 165 168 171 176 183 190 193 196 200 207 202 194 185 187 191 193 199 213 218 222 227 232 233 232 233 236 238 247 259 269 268 265 264 260 258 257 258 256 252 249 244 235 231 227 217 205 191 186 183 182 193 198 205 210 206 204 203 204 210 212 213 213 215 216 216 213 201 195 188 184 182 179 174 168 158 149 142 139 137 138 138 136 137 137 137 137 137 133 129 129 128 126 124 121 116 117 118 121 141 156 165 169 166 163 161 160 155 154 154 152 142 138 133 129 126 123 125 128 130 126 122 119 115 105 97 90 88 86 86 85 83 86 84 80 75 67 66 69 63 66 64 64 65 75 81
566 582 588 592 591 590 578 571 565 559 550 549 547 543 541 543 548 554 564 566 569 571 570 571 572 573 573 575 573 572 570 569 566 563 553 551 549 545 541 541 538 533 528 521 513 507 495 491 491 489 483 479 476 471 465 460 452 447 439 439 438 440 440 440 443 448 453 461 471 488 497 493 496 493 478 469 459 455 446 437 444 454 468 497 506 514 523 533 533 535 534 531 529 526 523 521 519 517 516 518 517 515 513 513 513 513 512 511 510 509 509 501 499 495 493 489 481 473 465 463 465 461 453 445 445 446 440 429 425 430 441 464 471 473 473 473 474 477 473 470 469 467 464 459 458 456 456 464 468 470 467 461 455 457 459 463 464 464 464 462 460 460 458 456 448 447 447 446 447 447 449 450 444 444 448 449 452 450 447 445 443 444 447 449 452 456 457 457 457 458 458 458 459 457 456 459 456 454 451 447 445 444 437 432 426 424 426 433 445 446 444 444 446 446 445 446 448 444 441 440 438 436 435 434 434 430 429 425 423 416 413 409 403 399 401 405 397 403 405 406 407 405 403 400 398 398 395 392 387 382 386 392 396 404 408 407 406 408 409 411 412 415 416 420 421 423 423 422 420 420 422 422 421 419 418 418 418 415 414 414 414 411 410 409 407 405 402 400 400 397 399 401 402 401 401 395 390 386 382 382 382 379 375 373 373 371 365 367 367 367 364 362 362 363 372 372 373 374 375 374 372 369 365 364 364 363 359 357 356 355 353 351 350 347 343 342 339 334 322 318 320 323 332 336 341 342 338 336 335 334 332 329 326 322 316 315 314 312 300 280 276 274 276 281 285 287 285 277 280 288 295 307 307 309 317 324 323 325 324 325 326 326 326 326 324 321 318 320 321 320 318 317 315 315 315 315 315 315 317 317 314 315 313 308 304 299 293 281 281 282 285 291 293 293 292 283 274 267 265 261 260 262 265 265 264 262 259 254 251 250 246 245 244 244 243 243 238 236 233 230 228 229 230 230 227 227 228 226 224 223 223 222 220 219 219 217 215 216 216 217 215 215 214 215 215 216 216 216 217 220 221 222 224 226 225 226 227 228 229 231 232 230 230 232 239 238 235 231 226 224 221 214 201 198 194 191 181 175 173 173 171 171 174 178 182 189 184 177 174 172 174 178 180 177 175 170 160 138 131 124 122 118 117 117 117 115 115 115 116 119 121 125 131 148 153 157 163 170 173 177 181 186 188 191 194 192 187 180 180 184 189 194 200 211 219 224 231 233 233 241 244 242 242 254 259 270 270 268 264 256 255 255 255 254 250 242 234 228 220 215 207 200 191 187 188 190 200 206 214 216 210 207 206 207 211 212 213 213 214 216 215 211 201 194 186 179 175 173 171 166 156 150 145 140 136 136 136 135 134 133 132 132 128 129 129 127 125 125 124 121 118 120 122 125 143 156 165 158 155 154 155 155 155 154 155 155 152 144 140 137 137 134 135 135 135 132 128 122 113 102 98 93 91 89 87 85 84 85 82 79 74 65 63 60 64 66 64 62 62 67 73
575 582 592 597 594 591 586 583 575 566 550 547 547 545 548 550 553 558 568 572 574 575 574 575 576 575 573 575 572 571 569 566 563 559 555 553 550 546 542 539 534 528 519 511 501 494 485 483 483 482 476 472 467 464 455 449 443 440 438 439 443 445 450 455 462 463 477 485 487 488 506 515 513 508 497 478 467 460 454 446 443 439 448 481 497 511 521 534 535 535 534 530 529 528 526 524 519 518 518 517 516 515 515 515 514 513 512 510 510 510 508 501 496 493 489 479 472 466 458 451 449 445 446 449 450 447 443 432 432 438 447 467 474 478 479 479 480 477 473 470 467 466 464 461 460 458 459 462 467 468 466 462 460 457 461 467 468 467 465 463 460 459 458 454 441 436 435 435 446 448 449 448 442 445 449 453 455 451 451 450 449 450 451 448 450 455 458 459 459 460 462 463 460 458 457 459 458 456 453 451 449 447 442 437 429 428 430 435 445 447 450 449 450 450 449 448 447 445 444 443 442 437 435 433 432 431 432 429 424 416 409 400 393 394 392 394 397 397 397 397 396 391 389 387 387 390 390 389 386 382 386 392 399 409 412 412 411 411 413 414 414 416 416 418 418 419 420 420 419 420 421 421 419 418 416 416 416 414 414 413 412 411 410 407 406 405 401 400 399 400 400 401 400 400 397 391 389 386 383 381 380 375 369 369 370 369 365 364 365 365 365 366 369 372 375 375 375 375 375 374 371 368 365 364 363 361 356 355 354 352 351 351 351 349 344 342 339 332 319 318 320 325 333 340 342 341 336 334 333 332 328 327 322 317 314 313 310 303 296 280 269 273 277 285 288 291 292 296 304 314 317 320 323 321 323 325 324 324 323 328 327 327 326 325 323 322 321 319 320 318 315 312 312 310 310 310 310 311 312 315 314 312 310 306 303 299 292 280 279 284 288 293 292 290 288 283 275 267 264 257 257 260 261 263 263 261 259 259 252 249 247 245 245 244 242 241 235 233 232 230 228 229 229 228 226 226 226 227 226 225 223 222 220 219 219 219 217 216 217 218 218 216 215 215 215 216 215 215 217 218 218 219 219 223 225 226 226 227 227 228 232 231 230 231 234 235 234 232 228 226 223 217 208 204 199 193 188 176 173 171 168 166 168 173 177 186 186 185 180 168 164 163 164 165 163 160 153 133 126 124 122 115 117 119 120 118 117 117 118 115 115 115 117 135 144 155 163 171 172 175 178 183 182 183 185 183 178 176 175 180 188 194 197 215 224 232 237 238 238 241 255 258 257 259 263 267 268 266 263 259 254 254 253 252 243 234 228 223 216 215 210 205 199 199 201 202 211 216 220 218 213 210 210 209 211 211 214 214 214 213 212 208 203 199 193 185 173 172 170 165 155 151 145 140 136 136 134 132 130 129 128 128 128 129 129 127 125 124 122 119 120 122 124 125 131 150 155 158 148 148 148 148 151 157 159 161 158 150 146 143 143 144 143 139 140 133 126 117 108 100 99 98 95 90 88 87 86 78 75 68 65 63 62 65 66 63 64 62 61 65 69
578 584 594 596 593 588 582 579 573 566 551 549 550 549 553 554 556 560 570 578 582 583 581 580 579 576 573 573 572 572 567 563 559 556 552 550 547 545 536 530 523 515 506 498 492 487 481 479 477 474 470 466 462 459 449 445 443 441 444 453 457 459 462 474 478 482 487 503 502 502 506 520 515 513 503 487 479 471 462 456 450 446 443 465 487 504 516 522 520 517 515 516 517 521 523 526 521 518 517 518 518 516 514 514 515 514 512 510 509 507 506 501 496 487 485 479 477 475 468 455 450 447 449 458 462 460 455 439 435 438 445 453 470 476 479 480 481 480 478 475 469 467 466 465 462 462 464 464 465 465 464 462 459 463 461 467 469 469 468 466 462 460 458 451 433 428 427 429 444 449 450 446 438 442 448 452 453 452 451 450 451 450 451 450 451 454 459 460 460 460 461 462 460 459 459 461 458 456 455 454 449 448 447 439 438 432 433 436 439 447 451 453 452 450 450 449 449 446 444 441 439 437 438 438 437 434 432 430 425 411 403 394 394 401 397 394 393 397 397 390 386 385 385 386 388 393 394 394 393 390 390 394 402 410 412 413 414 416 418 418 417 416 419 419 419 419 421 421 422 424 425 422 418 418 417 416 416 417 414 413 410 409 409 408 407 405 403 404 405 403 398 397 396 395 391 387 383 379 375 372 370 370 370 371 371 370 367 366 365 366 367 369 373 376 376 376 375 374 373 372 371 368 366 363 360 358 354 352 350 349 347 346 346 345 341 340 336 330 319 318 319 324 331 336 339 339 338 334 333 331 329 324 318 317 311 303 298 287 280 269 269 280 285 293 298 300 303 311 318 322 324 327 327 325 326 325 324 325 325 328 326 325 323 322 322 322 321 320 319 316 311 310 310 311 310 308 308 309 311 311 313 312 308 307 303 298 291 276 277 281 284 286 285 284 283 281 272 267 267 262 257 257 257 255 258 258 260 258 249 246 245 244 244 242 241 238 235 233 231 230 228 229 229 228 226 226 225 225 225 224 223 222 220 220 220 221 219 220 220 220 218 215 215 214 216 216 216 216 216 217 218 218 217 219 223 223 223 226 227 227 230 231 230 230 231 232 232 233 232 229 225 219 215 209 205 198 191 179 175 171 168 163 163 166 171 181 184 184 182 165 156 152 150 146 143 140 135 125 122 120 117 115 122 123 125 124 122 121 119 115 114 114 114 122 134 149 160 168 170 173 176 180 180 180 178 179 177 172 173 181 186 196 204 223 230 236 239 241 245 248 255 269 269 269 267 267 263 261 259 258 254 251 249 246 234 225 221 223 224 224 221 217 214 214 215 213 220 222 221 218 217 217 215 213 211 211 212 211 210 213 207 203 203 201 199 190 172 167 164 161 154 149 142 136 132 132 129 127 126 127 128 126 124 127 128 128 127 123 120 119 119 119 122 126 130 141 145 147 148 143 143 143 144 153 158 161 160 154 152 152 151 150 149 146 143 128 119 113 106 98 96 94 94 90 86 84 80 72 68 61 58 61 64 67 64 64 63 62 59 64 66
578 582 589 591 588 581 576 574 569 561 549 547 548 550 556 558 559 563 575 581 585 588 585 582 579 577 575 573 574 572 563 557 553 551 544 543 540 537 527 520 513 505 493 487 482 479 475 473 471 469 468 463 459 455 450 445 447 457 468 479 478 479 481 486 490 495 501 515 522 529 536 520 515 508 501 496 484 482 475 460 457 449 446 459 477 493 507 515 511 505 501 498 502 506 512 521 520 517 516 518 518 518 517 514 514 514 514 510 507 506 504 499 492 487 485 489 487 484 479 466 461 459 464 468 471 468 461 452 437 436 443 452 464 472 475 476 481 479 477 473 468 467 466 466 465 468 470 470 469 467 465 462 459 461 466 467 469 468 468 466 460 458 456 450 429 425 426 430 445 451 451 444 439 441 446 451 450 452 454 453 452 453 453 450 451 455 457 459 460 460 460 459 460 460 462 463 460 456 457 456 455 453 450 445 443 435 435 439 442 445 450 449 452 451 452 452 451 447 444 441 439 436 434 433 432 429 428 427 424 411 403 399 399 407 403 398 396 397 394 390 386 389 393 396 398 399 396 395 395 397 396 399 405 411 412 414 415 416 417 418 418 417 420 421 420 419 421 424 424 426 426 423 419 417 419 416 414 416 414 412 410 407 403 403 403 402 401 403 403 402 396 394 391 389 383 380 377 375 373 373 371 370 370 372 373 372 368 369 370 369 370 374 377 378 378 376 375 374 371 371 370 368 364 362 360 359 356 352 349 349 348 345 344 342 338 336 333 330 323 320 322 323 325 333 335 334 332 330 331 331 328 325 320 322 309 289 281 275 272 273 276 280 299 309 315 314 315 320 324 326 326 328 328 327 326 326 325 324 325 325 326 324 323 318 318 319 319 320 317 314 309 308 308 309 309 308 308 307 307 309 311 310 308 300 297 291 282 276 271 270 269 272 275 275 274 273 268 266 265 260 254 253 253 252 252 254 255 254 249 246 243 242 243 243 241 238 234 233 232 232 230 230 229 229 227 227 226 226 226 225 223 222 221 222 222 222 220 219 218 218 218 216 215 214 215 216 216 217 216 216 216 218 217 217 220 222 223 223 225 226 227 231 230 229 230 231 232 235 235 231 227 227 224 219 210 202 193 183 179 174 170 165 164 164 165 175 180 183 181 160 152 147 144 136 132 128 125 120 118 118 116 120 122 129 130 129 128 125 123 118 117 115 114 121 128 137 148 162 166 172 177 179 180 179 176 173 170 166 166 175 198 205 217 227 241 245 247 251 257 261 266 269 271 270 269 267 258 256 256 255 246 243 241 237 229 225 226 229 233 231 229 228 227 226 227 224 225 222 218 216 215 215 214 212 213 214 214 214 213 210 207 198 198 196 193 188 165 155 151 150 149 144 138 134 132 132 130 129 128 128 130 130 127 126 126 126 125 123 121 118 118 118 118 119 122 131 133 135 137 143 139 139 141 149 153 155 155 156 159 161 161 159 154 147 137 123 116 111 107 98 95 94 94 91 87 83 79 67 63 63 60 67 67 70 65 61 60 60 59 59 60
573 578 587 588 584 581 575 571 566 561 549 548 548 549 558 560 564 569 576 579 585 583 583 581 579 577 573 573 572 569 563 555 548 542 535 532 530 527 520 514 509 502 496 486 482 480 477 474 471 467 463 459 455 451 446 450 463 475 488 496 496 496 498 508 512 516 521 536 539 538 536 523 515 508 497 485 483 482 476 458 452 447 447 455 468 486 496 506 501 492 487 489 490 496 503 516 518 518 518 517 518 519 519 516 515 514 514 510 507 505 506 501 497 494 492 490 499 496 492 480 480 476 476 477 469 462 453 445 434 434 439 448 463 470 474 476 480 478 475 472 469 469 468 468 473 474 473 473 471 469 466 464 464 465 467 467 468 468 465 464 457 455 451 445 429 428 432 439 451 454 453 447 443 444 447 449 452 454 459 460 460 457 457 454 455 454 457 459 460 461 462 463 462 461 462 463 462 459 457 456 455 453 450 445 442 440 439 440 442 444 447 449 453 453 450 449 447 446 445 443 440 431 429 429 427 422 423 424 422 409 405 405 408 415 412 407 401 394 392 387 386 401 405 407 408 410 410 409 407 407 407 409 411 414 417 418 419 418 416 418 419 419 420 421 422 424 426 426 426 427 424 423 421 420 417 416 416 417 415 412 409 407 401 399 399 400 400 399 396 395 392 389 386 384 383 380 377 375 376 376 374 372 374 376 377 377 372 370 373 373 375 375 375 375 374 372 371 370 370 369 368 367 364 358 357 357 358 356 354 353 351 347 347 347 345 338 333 329 324 324 324 326 332 337 339 335 333 333 331 328 326 325 319 312 305 287 278 276 280 287 289 293 299 309 320 322 325 326 327 329 329 330 330 329 328 328 327 327 325 323 324 325 323 320 318 318 319 318 314 309 306 306 306 307 307 307 306 306 305 306 308 305 303 303 289 284 280 275 269 267 266 266 268 268 268 268 262 260 261 258 251 250 252 252 253 253 253 254 247 244 241 239 240 241 239 237 235 235 234 233 231 231 229 229 227 226 225 225 228 226 224 223 222 222 222 223 220 219 219 219 218 217 216 214 216 217 217 217 217 215 216 218 216 214 217 219 220 222 223 225 226 229 229 229 230 233 234 236 237 236 234 230 225 223 219 209 202 189 184 179 175 171 169 166 165 164 167 170 169 155 150 145 141 131 127 125 124 119 118 119 119 124 128 129 135 133 133 129 125 121 119 116 117 120 123 129 136 142 160 169 174 177 175 172 169 168 170 167 170 174 199 211 223 234 250 255 258 264 271 274 275 274 271 273 272 268 260 257 254 250 242 240 239 235 230 232 235 238 238 234 232 231 233 234 234 235 225 216 212 211 211 211 211 211 214 213 214 212 202 198 200 198 191 189 187 181 171 152 149 149 148 139 137 136 135 135 136 136 135 132 132 132 130 128 126 124 124 122 122 121 119 118 119 120 121 126 129 131 133 138 139 141 143 148 150 151 152 159 163 165 165 156 148 139 133 120 112 108 106 99 97 96 96 95 93 87 80 72 69 69 69 73 71 70 68 62 59 59 59 58 60
570 575 581 583 583 580 576 570 564 558 550 550 549 552 558 563 565 569 579 581 582 581 580 579 578 574 571 569 566 564 559 555 541 535 532 526 523 520 517 509 506 501 497 491 488 486 481 476 473 468 462 454 451 449 450 464 472 485 499 508 507 507 509 518 525 530 534 543 538 528 525 509 504 499 497 472 474 470 464 458 455 451 446 448 462 477 489 489 477 465 462 475 482 488 495 511 516 520 523 521 520 521 523 519 517 517 516 515 511 510 510 507 506 502 499 497 499 501 495 489 484 484 483 481 465 456 449 443 440 444 447 451 461 470 476 479 478 476 474 471 471 471 469 470 475 478 477 476 470 469 467 466 469 469 468 467 468 466 465 463 460 453 448 441 432 434 442 451 457 457 455 453 447 449 452 455 458 462 464 464 464 464 462 460 460 456 457 458 460 462 462 462 462 461 461 462 463 460 458 456 455 452 449 447 443 438 435 437 439 443 448 452 454 454 452 450 448 446 443 441 438 429 424 419 414 407 411 415 417 409 408 409 413 419 420 417 412 401 397 394 396 401 411 412 412 410 409 408 409 409 411 414 415 416 419 420 421 420 419 419 419 421 422 422 422 423 425 425 425 422 422 423 422 422 416 415 416 416 412 411 409 407 401 399 398 398 395 394 391 390 388 386 386 385 384 382 380 378 378 377 377 377 378 378 378 377 375 375 374 373 373 372 372 372 375 374 372 373 373 371 368 366 364 358 359 358 357 356 355 353 350 347 346 347 345 339 336 333 328 326 329 336 339 343 339 332 327 328 328 326 323 322 320 314 305 289 284 285 292 302 303 306 310 318 320 328 330 333 332 332 331 329 328 327 327 328 328 327 327 325 325 326 325 319 318 317 316 319 316 309 306 304 304 306 306 305 305 304 305 305 305 303 301 298 289 283 281 279 269 266 264 261 261 260 262 264 261 258 256 254 249 247 247 247 248 249 250 248 245 243 239 235 233 234 234 234 233 233 232 232 233 233 232 230 227 227 226 225 226 225 224 222 222 223 224 222 219 219 218 218 218 217 216 216 215 217 217 215 214 213 215 215 214 214 217 220 221 221 223 225 227 227 228 228 230 236 238 238 237 235 232 229 225 221 215 209 207 197 192 186 179 173 170 165 160 156 156 158 158 151 145 140 137 130 126 124 123 120 121 122 122 131 135 137 135 139 135 131 127 123 120 118 117 117 117 120 125 132 150 159 167 170 169 167 167 168 168 170 170 188 207 216 228 239 257 264 269 274 280 280 279 276 273 273 272 270 263 259 253 249 246 245 244 241 237 239 243 246 240 238 237 236 239 239 238 235 220 216 215 212 210 211 212 211 214 212 210 203 191 188 188 187 190 189 179 173 166 149 148 146 142 139 139 139 141 142 142 141 140 135 134 134 133 126 125 124 124 123 125 125 123 121 121 118 118 124 128 132 135 140 141 141 143 148 149 150 151 157 159 160 158 149 144 138 135 120 114 109 106 102 100 98 96 94 91 88 82 76 74 75 76 77 72 70 66 63 58 58 59 60 60
563 565 573 575 578 580 578 571 564 557 551 551 551 551 557 562 568 570 579 581 581 582 576 573 573 574 572 565 561 558 556 549 541 533 529 522 520 519 516 511 510 508 505 499 492 488 484 475 472 467 462 451 450 453 459 478 485 499 507 518 518 521 523 530 532 533 536 533 526 521 513 500 493 487 479 472 469 463 460 460 458 452 441 437 446 460 471 468 460 454 453 465 474 482 490 511 519 524 526 527 525 522 521 521 519 519 519 517 515 513 512 508 508 507 506 508 505 501 493 489 488 488 487 482 460 450 443 438 449 453 455 458 470 476 480 479 475 474 473 471 472 473 473 472 478 481 479 478 475 473 470 469 471 471 471 471 471 468 465 463 461 455 448 442 436 441 450 459 461 461 458 457 453 453 458 463 465 468 467 466 464 464 462 461 462 459 458 458 460 463 464 465 466 464 462 462 461 457 455 454 453 452 451 447 445 437 434 434 437 448 453 456 457 455 456 455 451 443 440 436 431 422 418 413 410 403 401 404 409 410 410 415 419 423 423 421 416 406 408 406 407 411 411 411 409 409 409 409 409 410 412 413 414 414 419 419 419 420 421 421 422 424 427 425 423 422 422 422 421 419 420 420 419 419 416 415 415 415 411 410 409 407 400 399 397 396 393 391 389 387 386 385 385 382 378 379 379 379 380 379 379 379 377 376 375 375 377 376 375 375 375 375 374 375 375 375 373 372 372 370 369 365 363 359 359 359 357 354 352 350 348 346 347 348 348 347 346 341 336 330 333 334 340 350 342 334 328 324 323 321 319 319 317 305 297 291 289 293 301 315 316 317 319 326 328 328 330 329 329 329 329 329 327 328 328 327 326 324 323 325 328 325 327 323 317 316 316 316 314 310 305 303 305 301 300 302 301 301 300 300 299 297 296 294 286 283 280 277 274 271 269 265 263 260 260 261 257 253 250 248 244 242 243 245 245 247 249 246 242 240 238 235 235 234 234 234 233 232 230 231 234 233 233 231 229 227 226 225 225 224 224 222 221 222 223 223 221 220 220 220 220 217 218 218 218 216 215 213 212 211 213 213 215 215 215 217 217 224 225 225 226 230 230 229 230 236 237 238 237 234 230 227 225 218 215 214 209 198 192 187 183 175 171 165 158 152 154 154 154 145 139 129 124 120 120 119 120 123 125 128 131 137 143 143 142 142 137 132 127 123 119 117 115 113 113 114 118 122 137 148 158 163 165 165 166 167 170 175 186 197 214 221 230 240 264 273 280 284 284 282 280 278 276 274 272 266 263 261 259 258 255 254 252 250 249 250 252 253 243 239 238 239 241 243 241 235 227 221 221 219 216 213 211 209 208 196 189 188 172 168 167 169 173 183 179 168 159 147 145 141 141 139 140 140 140 139 140 141 141 135 134 133 131 128 129 127 126 125 126 126 125 124 123 120 117 121 125 129 134 143 144 145 146 148 152 156 158 158 156 152 148 141 138 135 131 124 107 103 100 97 95 92 91 89 84 83 82 81 80 80 82 80 70 68 65 62 60 59 60 62 61
548 551 559 566 572 575 577 572 565 558 548 548 549 550 555 560 567 568 570 576 578 579 576 577 575 572 569 559 554 552 551 542 537 533 526 522 522 523 521 516 514 514 513 504 490 486 482 474 470 464 458 450 454 461 473 490 499 510 518 526 530 533 537 537 537 535 534 522 516 508 500 484 478 474 470 469 469 469 462 458 456 453 445 434 436 443 454 458 453 449 448 450 463 476 487 500 522 525 525 527 526 523 523 522 520 520 520 519 516 514 513 509 508 511 512 510 507 500 493 490 490 487 484 479 454 447 442 439 449 457 462 467 476 481 481 479 477 475 473 473 474 477 477 476 481 483 481 479 478 477 473 472 473 474 474 472 473 472 471 467 465 454 448 443 438 445 457 465 465 461 458 459 455 457 460 466 469 468 466 463 462 462 463 462 463 459 457 459 463 465 467 466 465 463 461 463 462 459 458 456 455 454 451 450 445 438 436 437 441 451 456 457 456 454 455 453 452 441 438 433 425 415 412 412 412 410 407 408 409 415 413 419 424 426 424 422 418 415 414 416 418 417 413 411 418 419 417 414 411 410 414 416 415 415 421 423 424 424 423 422 421 422 426 426 424 422 421 420 421 419 418 418 417 416 415 415 415 412 410 408 408 407 401 399 397 396 393 392 389 386 384 384 384 383 380 379 379 379 380 381 381 381 380 376 375 374 374 375 375 377 377 375 376 377 377 378 377 375 374 370 367 365 363 360 359 359 355 353 352 351 349 350 349 350 349 347 347 347 344 332 331 330 336 345 340 337 328 321 318 315 313 306 302 292 287 291 296 302 307 323 328 329 331 334 332 331 330 328 329 329 329 329 328 327 327 325 326 325 325 325 323 325 326 323 314 313 314 314 312 310 304 306 303 300 297 295 295 295 297 297 295 294 293 290 286 283 280 275 274 273 269 265 260 258 258 258 255 250 247 246 245 244 244 245 241 240 241 243 244 244 243 241 235 235 234 234 233 232 232 232 233 234 234 233 232 228 226 224 223 223 224 223 222 221 221 222 222 221 220 220 219 218 219 218 217 215 214 213 212 213 214 216 218 216 216 217 216 223 224 223 223 227 228 228 229 235 237 235 237 237 233 231 229 220 218 218 214 197 193 188 182 176 171 164 158 152 151 148 146 141 128 120 115 115 117 121 124 129 134 139 144 146 142 142 142 143 137 138 136 132 124 119 114 110 107 109 112 117 132 141 151 154 158 162 165 168 173 181 193 203 214 217 224 239 262 273 280 283 283 282 281 279 275 271 268 266 264 265 265 264 260 259 259 259 257 257 255 251 246 237 235 234 235 239 234 228 222 223 222 223 221 215 207 204 199 174 168 166 171 161 154 160 166 177 174 168 150 143 143 141 141 138 140 142 142 139 139 138 139 137 137 137 135 133 130 127 127 127 128 128 128 128 128 128 126 124 126 129 135 146 148 149 150 151 152 160 161 161 154 145 133 128 124 123 121 117 109 107 102 98 91 89 87 86 78 77 78 77 77 78 80 78 68 65 61 61 61 61 61 63 63
545 547 558 565 569 573 575 575 570 564 558 553 554 556 557 561 567 571 571 574 576 575 575 574 570 566 563 555 550 547 544 536 531 528 526 522 524 526 528 527 525 524 520 502 490 484 480 470 463 458 456 453 462 473 479 502 510 523 530 533 535 536 536 536 536 533 528 513 506 500 489 478 476 474 474 473 474 469 470 463 459 455 451 444 433 437 443 445 445 444 446 448 459 472 486 499 520 526 528 530 529 526 524 523 520 519 518 517 514 514 510 506 508 513 513 514 503 498 493 490 489 483 476 471 454 445 441 440 454 463 467 470 479 485 485 484 479 479 476 476 478 480 479 477 480 480 481 481 481 480 477 474 474 476 476 475 474 474 474 472 466 454 441 438 438 451 460 465 465 461 461 462 458 459 463 467 469 466 464 463 462 461 462 462 462 459 460 461 466 467 466 467 466 464 463 464 463 459 458 456 454 455 454 450 448 442 441 443 444 450 454 458 458 457 455 452 449 441 435 428 419 414 413 415 418 422 421 420 412 413 418 424 429 427 422 422 422 422 419 421 422 422 422 420 418 422 419 415 413 412 416 417 418 418 423 426 426 427 423 422 423 424 426 425 424 421 419 418 420 421 418 416 415 415 413 412 410 408 408 408 406 404 400 398 397 396 393 392 390 386 383 383 383 381 380 379 380 380 380 380 381 381 382 379 377 377 378 380 378 377 375 376 376 377 377 375 374 374 374 370 367 364 363 359 358 358 355 348 347 346 347 349 349 349 349 349 348 347 342 332 333 328 328 339 337 334 326 314 308 303 300 294 292 293 288 291 297 306 311 326 331 334 333 332 329 329 328 328 329 330 330 330 328 327 325 324 325 325 324 323 323 323 323 321 313 312 314 315 314 310 307 310 301 299 297 295 291 292 293 294 292 292 291 289 284 282 280 275 271 270 268 266 259 257 256 256 257 252 250 250 251 250 248 246 243 243 245 245 247 248 247 246 242 236 236 234 233 231 232 233 233 233 232 230 229 227 226 224 225 224 223 223 223 222 223 222 222 222 223 222 219 217 218 219 218 214 214 214 213 215 217 218 219 217 218 218 218 222 222 221 221 226 228 229 230 232 233 235 234 238 234 231 229 223 220 220 217 200 194 190 188 183 172 164 160 154 146 144 140 134 122 117 115 117 126 132 138 142 148 150 151 149 143 141 141 142 141 138 139 137 134 130 124 118 106 105 108 116 132 138 143 146 155 161 168 171 178 188 197 202 208 209 215 229 258 267 275 280 283 282 280 278 272 270 268 265 264 265 270 270 266 259 260 262 263 258 250 241 235 234 235 234 234 232 230 226 223 221 219 218 214 201 195 192 185 173 171 171 168 157 153 153 159 165 160 158 150 149 149 148 144 139 142 146 150 148 146 144 142 140 141 140 138 130 127 126 126 126 127 129 130 130 132 132 130 127 128 131 135 139 148 150 151 153 157 160 161 161 153 140 127 121 119 117 117 117 113 110 105 99 88 85 84 83 77 76 76 74 71 70 70 68 64 62 59 59 61 62 63 64 67
548 557 564 577 578 575 575 574 569 565 561 557 561 563 565 565 567 567 569 573 573 573 574 569 564 561 557 550 547 544 539 531 529 528 526 524 524 536 535 532 528 524 520 498 489 481 475 463 457 454 451 458 469 482 495 521 525 533 539 533 533 534 535 531 530 526 521 507 500 491 486 480 479 479 481 481 478 475 470 472 462 462 462 460 444 441 441 441 446 447 451 452 460 471 483 496 520 527 531 534 530 527 526 526 525 522 519 517 513 510 508 506 510 514 513 508 500 496 494 492 489 481 477 471 451 440 438 444 458 466 471 475 484 486 488 485 483 480 477 478 483 483 479 477 477 479 479 481 482 480 477 474 474 478 478 477 476 475 474 470 461 445 441 442 445 457 463 466 464 462 464 466 461 464 467 467 467 465 465 465 466 465 464 465 465 463 462 463 463 468 469 469 468 467 467 467 466 459 457 456 453 455 456 453 448 446 446 446 446 449 450 452 455 456 457 455 450 443 431 422 417 414 419 423 426 431 433 431 421 417 430 434 435 430 424 424 425 426 425 424 425 425 423 421 421 422 422 419 417 416 417 417 418 419 421 423 425 426 422 423 424 426 425 423 423 424 421 422 422 423 421 419 417 416 412 411 410 410 410 412 408 405 403 400 398 395 394 392 392 392 390 385 383 382 381 385 385 384 384 384 382 382 383 384 385 385 384 382 379 377 375 376 377 377 377 376 374 373 372 370 369 367 363 359 358 356 352 348 346 345 344 345 347 348 348 348 347 345 340 336 335 329 327 329 329 324 317 305 301 297 295 298 297 297 298 301 304 309 316 322 328 330 331 331 328 330 329 329 329 330 329 328 326 326 325 323 325 322 321 321 322 322 322 320 313 316 316 315 311 310 309 310 307 300 297 295 291 290 290 291 290 289 289 288 280 279 279 277 271 271 270 268 260 257 256 258 261 261 261 259 258 257 255 253 249 250 254 253 252 252 251 247 243 239 238 236 234 234 235 234 233 229 228 228 227 226 225 225 225 224 222 222 222 224 224 223 221 222 223 223 220 217 217 218 218 215 215 214 213 213 217 216 216 218 219 218 218 220 221 220 220 226 229 231 232 232 233 233 234 238 238 236 235 234 224 220 217 213 198 193 187 184 175 167 161 154 145 140 136 131 124 125 129 133 143 148 151 149 156 154 152 151 150 149 147 146 143 141 139 148 147 143 138 130 113 109 109 112 127 134 140 145 152 158 162 168 179 186 191 192 199 205 213 225 256 268 278 283 283 281 281 278 276 274 273 272 270 269 270 272 268 257 259 260 262 255 247 238 235 237 237 237 236 235 234 230 226 219 214 212 203 195 190 189 187 183 184 185 187 176 165 159 156 159 153 153 151 149 155 153 148 143 147 152 157 156 153 150 146 140 140 139 136 130 129 128 128 128 130 130 130 131 134 134 133 131 131 134 136 138 144 149 152 155 158 160 161 158 148 137 126 118 118 117 115 114 108 104 100 96 85 80 78 77 76 76 77 75 67 64 64 63 62 61 59 57 58 60 64 66 67
550 559 572 581 581 580 578 579 576 570 563 563 566 570 572 569 567 566 568 573 573 573 569 563 559 555 552 547 544 541 537 531 531 528 526 530 533 536 534 526 521 519 512 495 485 476 470 458 452 451 451 472 487 498 507 530 537 542 543 534 530 532 533 531 524 519 515 508 493 485 480 478 486 487 490 490 487 484 480 472 476 479 478 479 469 461 456 453 456 458 458 456 460 470 481 492 514 523 531 534 532 530 528 527 527 526 524 519 514 513 512 513 513 513 509 505 501 499 497 495 486 481 477 461 433 435 444 447 466 473 479 484 489 490 491 489 488 482 478 481 486 485 481 479 480 482 480 481 481 480 477 479 479 477 476 476 476 474 472 467 458 446 442 442 445 465 468 468 467 464 467 467 464 461 464 465 466 466 467 470 471 466 465 465 466 463 463 461 461 464 467 470 472 471 471 469 467 462 459 457 454 456 454 451 449 447 449 449 450 451 452 452 453 453 456 454 448 444 431 424 417 418 422 429 435 437 437 436 433 431 440 442 438 430 425 424 425 426 427 428 427 426 425 425 428 429 422 419 420 421 421 423 425 425 423 423 422 422 421 422 422 422 423 423 424 423 422 421 421 420 421 419 418 419 415 413 412 411 413 408 406 404 403 398 397 396 395 393 392 391 390 387 385 384 384 387 387 387 387 385 384 382 382 381 381 382 383 382 381 378 377 377 378 378 376 374 374 375 375 370 367 365 363 360 358 357 355 349 346 345 343 343 343 344 346 347 346 346 344 339 335 329 324 320 317 310 305 302 294 296 299 305 302 302 305 309 312 318 325 329 328 328 327 329 329 327 327 328 331 330 324 323 324 325 325 327 326 325 321 319 318 319 320 319 314 310 313 314 314 312 306 306 305 302 300 298 290 287 284 283 284 284 285 286 277 274 275 276 273 271 270 265 258 256 256 257 259 262 261 261 261 263 262 261 257 257 259 259 258 255 254 252 248 240 237 236 235 235 235 233 231 228 228 226 227 225 224 224 224 223 222 222 222 223 224 222 220 220 221 220 217 216 218 218 218 216 216 215 214 213 214 215 215 218 218 215 214 215 216 219 219 226 230 232 232 234 234 234 234 237 238 236 236 235 226 220 217 214 201 190 185 183 174 169 160 152 142 136 133 129 127 135 142 148 157 161 164 166 162 157 153 151 152 152 153 152 152 150 148 148 152 150 146 141 121 114 109 108 115 124 132 136 144 148 152 156 169 176 179 183 196 205 218 232 245 274 285 288 286 284 283 282 281 279 278 279 277 274 274 272 270 263 262 261 258 254 249 242 241 242 244 246 248 243 239 233 228 217 214 210 200 190 188 185 190 196 195 196 194 185 175 162 159 161 161 163 162 158 155 160 152 148 154 159 162 163 162 158 152 147 141 140 138 135 130 131 131 131 131 132 132 134 136 134 132 131 135 137 138 139 143 145 149 156 159 159 158 158 143 135 127 121 115 113 111 107 100 97 95 94 82 79 77 78 78 79 78 76 68 65 63 63 62 63 61 60 58 60 62 63 65
550 562 577 580 581 580 582 583 580 573 567 564 570 576 577 571 567 565 567 569 569 568 565 560 555 550 546 541 538 536 534 534 535 535 535 535 536 535 534 515 511 508 502 490 482 475 467 455 452 453 461 494 507 515 519 530 540 540 539 537 533 532 532 530 523 518 510 503 489 481 479 483 493 499 504 510 506 499 490 482 476 479 490 493 485 477 468 462 465 466 463 455 458 468 481 490 511 521 530 532 531 531 529 528 531 530 529 526 518 517 518 518 512 509 506 506 504 503 500 495 481 476 469 461 437 434 444 460 467 484 487 491 494 492 491 490 488 485 487 487 486 487 483 481 481 483 482 481 481 479 479 480 480 477 476 475 474 472 469 465 459 448 446 447 453 465 471 470 469 467 467 467 465 462 461 462 464 470 473 473 473 467 466 464 464 463 463 466 465 465 467 469 470 470 471 469 468 466 462 461 457 455 456 455 454 450 449 452 453 451 450 450 453 455 453 448 442 440 429 425 419 418 428 437 444 444 443 444 444 443 444 440 435 430 425 423 423 423 425 428 430 430 430 433 433 431 423 421 420 417 419 421 425 427 427 425 425 425 425 428 426 424 423 424 425 423 422 419 418 416 416 414 415 416 416 415 413 409 409 408 406 405 404 400 398 397 396 393 391 391 390 388 388 389 389 387 386 386 386 384 382 380 379 379 378 378 378 380 380 379 377 378 378 376 376 375 373 372 370 364 362 360 360 358 359 356 354 348 347 344 343 342 341 341 342 344 344 344 344 343 335 330 324 322 308 298 293 289 288 294 301 308 316 315 319 320 325 327 328 330 329 328 328 328 329 331 328 329 328 327 324 324 325 325 325 325 323 320 320 320 320 321 320 318 312 310 309 311 312 312 310 306 301 298 297 296 289 283 280 279 279 281 283 284 275 271 270 272 271 268 267 265 260 258 259 260 262 266 268 267 268 269 267 265 263 262 264 264 262 255 254 253 252 244 241 239 236 232 232 230 228 227 227 226 227 225 225 225 224 223 222 222 221 222 222 220 219 218 218 217 217 217 218 218 217 216 215 214 215 212 213 213 214 217 217 217 216 215 216 215 216 219 227 229 231 234 236 236 234 235 237 236 237 234 230 225 220 217 206 197 188 185 179 171 161 153 143 137 133 130 130 137 148 156 168 171 173 174 164 158 155 156 160 162 162 162 160 158 156 154 152 158 155 151 133 122 114 108 104 112 119 125 130 139 144 150 158 170 173 178 185 204 218 232 250 280 285 288 287 287 286 284 285 285 284 281 281 279 276 273 270 262 261 259 256 260 257 253 251 250 251 253 257 249 245 240 235 221 217 211 204 195 192 196 200 203 203 200 199 189 181 173 171 168 171 169 169 170 165 160 156 158 161 163 165 166 169 166 158 150 143 141 140 138 133 133 134 135 139 137 136 136 134 134 133 134 136 137 138 139 142 144 148 154 159 158 155 152 143 131 123 119 112 109 105 100 92 90 90 90 88 87 85 85 82 79 77 73 69 66 64 62 63 64 62 61 59 61 61 62 62
561 571 582 588 588 588 587 581 577 573 569 567 573 578 580 574 569 568 567 568 569 567 564 557 550 546 543 539 538 537 535 540 542 543 540 532 530 528 525 515 498 496 491 487 478 473 466 459 456 462 476 491 518 526 534 537 541 540 541 542 537 536 534 533 520 514 506 497 484 478 484 492 505 514 521 526 526 520 509 497 490 489 490 507 503 490 481 474 473 461 454 452 455 469 480 491 507 516 526 529 530 532 532 533 532 533 532 529 521 521 521 519 512 512 510 509 507 497 488 475 466 451 450 443 437 446 459 474 482 492 496 497 498 495 494 491 491 485 483 486 487 488 486 485 484 483 483 483 485 485 484 483 483 480 478 476 473 467 464 461 456 448 448 453 459 470 471 472 471 467 467 467 467 464 462 463 466 472 474 474 473 471 470 466 463 466 467 469 468 469 471 472 472 471 467 465 464 462 461 461 459 458 460 459 453 451 451 452 453 451 451 451 453 456 452 446 442 435 427 422 418 422 434 441 447 449 446 446 447 448 446 441 435 431 430 429 430 430 430 430 432 435 436 434 431 427 423 420 417 417 416 420 424 424 423 422 423 425 427 425 426 427 427 423 424 421 420 418 416 416 415 412 411 410 410 412 412 410 407 406 405 403 402 400 400 400 399 393 393 392 390 391 390 389 388 386 385 385 384 382 383 383 383 382 382 381 382 379 377 375 374 376 376 376 376 372 370 369 368 365 364 362 360 358 357 355 352 350 346 344 344 343 342 342 342 341 339 337 337 336 332 326 320 318 304 297 293 289 291 295 300 310 323 327 331 331 330 329 329 329 330 329 329 329 329 329 329 328 326 325 322 324 323 322 322 322 321 318 317 318 320 321 319 319 312 310 308 309 307 306 306 304 299 297 296 295 292 284 283 283 281 281 282 280 280 277 272 274 273 270 267 263 260 262 262 262 263 267 268 268 270 268 267 265 265 269 269 267 264 260 259 257 253 248 245 243 237 232 231 229 228 228 227 226 226 224 223 221 220 220 221 222 221 219 219 219 218 218 219 219 218 217 217 217 217 216 213 212 212 212 212 212 212 213 216 217 216 214 215 216 218 220 222 224 228 232 238 237 235 235 237 237 237 234 230 224 219 216 214 210 199 188 177 170 163 156 147 141 137 134 136 146 159 169 177 179 178 173 167 164 163 165 173 172 172 170 162 161 160 160 159 158 163 160 156 141 132 121 110 120 121 132 132 140 140 148 155 167 171 177 187 207 215 236 256 281 282 282 282 286 289 289 288 287 285 282 281 278 273 269 267 262 256 255 255 259 259 259 259 260 259 259 257 252 249 246 239 225 221 212 205 201 199 201 204 212 214 211 208 190 181 177 175 174 173 173 176 176 169 160 156 164 165 163 163 165 168 164 158 153 144 142 139 137 134 135 135 136 140 141 140 139 134 134 136 138 138 137 139 142 145 146 148 153 157 158 157 154 142 131 118 114 111 106 102 96 88 88 89 92 94 92 91 89 81 76 73 70 70 67 65 64 64 64 63 61 59 60 61 62 62
575 589 595 596 594 591 586 580 577 574 570 571 573 576 578 576 573 572 571 569 567 565 562 553 550 547 547 544 542 539 537 543 544 542 534 529 522 520 517 513 498 494 488 482 474 470 464 459 461 469 487 503 529 536 542 545 548 549 550 548 539 536 534 532 519 510 499 487 479 478 487 500 516 525 528 532 531 527 519 508 497 498 502 507 510 501 495 486 466 455 449 454 448 464 482 494 511 517 524 525 527 529 531 533 530 535 532 529 526 523 522 519 517 514 513 511 506 478 462 446 437 431 435 435 434 446 476 487 493 500 501 500 500 495 493 490 487 478 481 485 488 488 489 490 489 488 488 487 487 487 487 486 485 481 478 474 468 458 456 452 448 444 449 458 463 472 473 472 470 469 469 467 467 465 463 463 463 468 469 471 472 471 470 464 464 466 467 467 469 471 473 471 470 470 466 466 465 462 462 462 461 460 459 458 455 454 454 454 453 451 455 455 454 453 451 448 441 433 422 420 420 427 436 440 443 446 448 447 447 449 447 441 436 432 433 435 435 434 436 435 436 436 434 429 425 422 421 419 418 416 415 423 423 423 424 425 424 425 427 427 427 425 423 419 420 420 421 420 417 416 415 413 411 409 408 406 407 408 408 406 404 403 403 402 401 400 399 396 395 394 392 391 392 390 387 386 385 384 384 383 383 382 381 381 382 382 382 378 375 373 372 373 373 374 374 369 368 369 370 367 363 362 363 359 355 351 348 346 344 343 343 343 342 346 345 343 341 336 334 333 331 325 321 316 305 298 295 295 301 304 309 318 327 330 333 333 333 334 334 334 331 329 327 327 328 326 326 326 329 326 325 325 323 320 319 319 320 325 321 319 319 319 317 316 310 308 307 308 307 310 307 304 301 296 296 296 293 286 286 284 281 278 280 279 280 276 275 274 274 269 263 259 258 262 264 265 267 270 271 273 273 270 268 265 265 266 267 265 264 260 257 254 251 246 245 242 238 232 231 228 227 226 226 226 225 223 221 221 221 220 221 221 221 219 221 220 218 217 218 218 218 217 216 215 214 215 213 212 212 212 213 212 213 212 212 212 213 214 215 215 217 219 219 221 226 232 237 237 236 233 234 236 235 234 226 225 218 214 214 209 201 191 178 171 164 158 148 141 136 132 137 147 159 169 175 176 178 174 173 173 173 172 179 179 181 179 174 167 168 168 170 168 163 167 163 157 150 140 128 124 133 134 136 140 144 154 155 163 171 178 188 208 226 247 262 273 274 275 277 282 283 284 285 286 286 284 281 275 270 267 264 260 256 254 255 257 261 263 263 263 260 259 258 256 254 251 248 228 222 216 212 209 205 205 208 214 220 219 212 200 183 182 184 180 172 172 171 169 165 161 163 164 169 167 166 167 168 163 158 155 147 143 141 141 137 136 137 138 139 141 143 143 138 138 137 138 139 141 143 147 151 150 149 152 155 155 154 152 136 125 118 115 110 105 101 96 92 95 96 97 97 96 96 92 86 77 72 68 68 69 67 66 64 63 63 63 62 59 60 61 60
586 594 598 596 593 590 588 580 577 571 567 574 572 576 576 578 576 573 572 565 561 559 556 549 550 550 551 552 548 547 545 546 542 538 530 528 523 521 518 512 500 494 488 486 472 465 460 458 467 476 494 512 537 543 547 549 555 556 554 550 541 537 535 532 520 509 497 484 481 485 499 511 527 531 535 534 534 532 525 516 506 509 515 518 510 508 498 483 456 449 451 451 461 466 476 492 505 517 518 520 523 528 530 533 530 531 532 531 528 522 521 518 517 515 512 506 497 462 447 438 434 431 431 434 439 460 476 497 502 502 500 500 499 496 492 488 482 479 483 486 488 488 490 491 491 485 484 485 486 489 489 487 486 482 478 468 459 451 449 447 445 445 453 464 470 474 472 471 470 469 470 469 468 469 471 468 465 465 465 467 469 471 467 464 463 464 470 472 473 474 475 473 472 471 468 467 466 465 460 460 460 462 462 461 460 459 461 461 458 456 455 454 452 451 450 446 437 430 421 418 419 424 431 432 435 440 448 450 450 450 446 442 438 436 435 437 438 438 439 439 438 436 435 428 424 423 423 425 424 422 420 423 427 427 428 429 429 426 424 425 423 421 421 419 420 421 421 418 416 415 413 412 410 409 406 402 401 402 403 401 400 400 400 399 400 400 400 397 396 396 395 393 392 389 387 384 385 384 384 381 379 376 375 376 377 379 380 376 374 372 371 371 370 371 370 369 368 368 366 365 364 361 360 358 353 350 348 346 346 347 343 344 347 346 345 342 339 336 336 335 329 321 318 315 308 301 300 306 316 319 322 326 330 331 331 333 336 336 335 333 329 328 326 324 323 323 323 324 327 327 326 325 321 320 319 316 316 316 319 319 315 317 317 314 311 306 306 305 304 306 305 304 301 292 290 289 290 289 289 289 286 276 274 276 279 277 275 273 274 267 262 258 258 262 264 271 272 272 274 275 273 268 266 266 265 264 262 259 258 256 255 253 252 247 243 240 237 233 231 229 228 225 225 226 227 225 223 223 222 222 223 222 222 223 221 219 217 217 218 218 217 216 215 215 214 215 213 212 213 213 214 213 213 212 213 213 213 216 218 218 219 220 221 223 225 229 231 233 233 233 232 230 230 229 226 222 220 217 208 206 200 190 178 174 167 161 150 141 134 131 135 142 152 165 172 174 178 179 181 183 182 182 184 192 190 187 184 180 183 187 189 179 172 167 163 163 159 153 149 146 144 140 140 145 146 145 147 152 165 169 174 195 219 242 254 258 260 262 268 278 280 282 283 286 285 282 280 275 270 265 263 258 256 254 257 257 261 266 268 266 265 265 264 263 260 257 253 247 230 221 214 214 213 212 216 221 223 220 209 199 192 192 191 190 171 167 168 167 168 169 172 171 169 177 177 174 171 169 164 158 149 145 142 140 137 136 138 138 137 139 142 142 140 138 138 140 143 145 148 151 152 154 155 154 147 146 144 142 128 121 117 115 113 105 103 100 98 101 101 100 99 99 97 91 88 82 78 75 71 71 71 69 67 64 64 64 63 61 61 61 62
586 591 594 594 592 591 590 582 579 577 571 574 576 579 580 577 574 571 568 564 556 554 552 551 555 558 558 558 556 553 549 545 539 536 530 529 523 520 517 515 506 502 494 486 475 467 461 458 466 480 495 510 536 542 545 548 555 555 552 548 541 538 536 531 516 505 496 489 490 500 516 527 537 539 538 535 535 532 526 519 516 520 523 525 519 508 502 478 454 450 447 450 452 457 463 475 488 505 509 512 517 524 526 530 532 530 529 528 526 522 521 519 519 510 501 492 482 457 445 438 436 435 437 441 450 478 489 497 506 502 500 500 501 499 494 489 486 484 485 487 490 489 490 492 493 492 490 490 490 489 489 488 486 479 474 462 453 447 448 451 452 453 463 470 473 474 473 472 471 469 473 472 471 473 475 474 469 465 466 468 470 472 468 469 469 468 472 475 476 476 475 474 475 472 468 469 469 467 461 459 459 460 461 461 460 461 461 460 458 457 456 454 448 445 442 439 434 431 426 423 424 425 420 418 416 421 437 443 445 446 448 446 443 439 436 436 437 440 438 440 438 437 437 434 430 426 428 430 429 429 425 427 427 430 431 428 427 429 427 426 422 421 422 420 419 419 418 416 415 413 410 406 406 407 405 402 401 401 402 399 399 401 401 400 398 398 398 396 394 393 392 391 390 389 388 382 380 379 377 376 373 371 370 370 372 373 373 374 370 367 368 368 365 365 366 366 365 365 364 364 365 361 359 358 354 351 349 348 348 345 344 346 352 349 345 338 337 337 336 331 324 320 315 311 304 302 303 309 322 325 330 332 336 337 336 335 336 333 330 329 327 326 324 322 322 323 322 324 325 326 327 324 321 320 318 316 314 317 317 316 314 314 314 313 309 304 306 303 301 299 299 299 300 293 290 291 290 287 285 286 285 274 271 272 273 272 268 267 269 265 262 260 259 266 270 271 275 275 275 272 270 264 263 265 264 258 256 256 255 253 253 253 252 245 241 239 235 233 232 230 228 226 225 226 227 228 226 225 225 225 223 223 223 222 222 219 220 219 217 215 214 216 216 216 216 216 216 215 214 212 210 210 210 210 214 214 214 215 218 218 218 218 220 220 224 227 229 230 230 230 231 228 227 227 223 222 222 217 207 203 199 193 180 176 171 165 151 141 135 133 131 140 153 162 168 175 180 184 186 191 193 193 192 190 188 187 185 185 188 191 192 187 182 178 173 163 171 168 163 159 158 154 152 148 153 150 147 137 141 153 159 182 200 221 239 248 250 252 255 263 266 269 273 281 282 283 281 279 276 273 271 264 262 260 257 264 262 265 268 269 271 271 269 268 264 260 255 249 239 231 224 223 222 224 230 234 226 222 216 209 204 206 209 204 182 174 174 175 177 178 176 172 174 177 186 180 173 170 166 162 151 148 144 140 141 141 140 139 138 140 141 143 144 144 146 146 148 148 150 150 157 163 165 162 155 147 145 141 134 121 117 116 113 104 107 108 105 104 104 102 101 100 99 94 92 89 85 81 76 74 73 71 70 66 66 65 64 63 64 64 64
585 591 587 592 593 594 592 585 582 578 575 575 581 580 579 577 571 569 566 563 557 555 551 550 558 562 559 558 556 552 546 542 539 538 532 530 527 524 520 518 510 508 502 495 475 472 466 461 466 478 492 507 528 533 536 541 554 554 552 549 541 537 531 525 511 505 498 496 501 513 527 534 542 544 542 542 542 535 527 522 521 529 533 533 531 513 502 479 464 450 449 449 447 455 460 469 478 492 497 501 509 516 518 524 528 531 529 528 527 522 521 519 514 499 490 483 475 462 453 446 442 445 449 453 464 490 498 501 506 500 500 501 501 501 498 493 490 489 490 490 491 492 492 491 491 494 494 493 492 488 487 485 483 479 470 459 451 446 450 457 463 465 472 475 477 477 477 476 475 474 473 476 475 474 471 471 470 469 468 470 471 472 473 476 476 475 475 474 474 478 478 476 474 474 472 471 469 466 464 464 463 461 458 459 459 459 458 456 453 451 450 450 448 434 429 426 425 427 427 426 426 426 422 415 413 415 422 439 441 443 445 447 444 441 440 443 446 446 442 439 438 438 440 437 434 432 433 432 428 428 429 431 429 430 433 430 429 428 427 425 424 424 424 417 416 415 414 414 414 413 410 404 403 403 403 402 399 399 401 399 400 400 400 400 402 401 400 397 396 394 392 390 392 390 388 387 379 375 371 370 369 368 369 369 370 371 372 373 370 367 365 364 364 364 363 365 363 363 362 365 366 361 359 357 352 349 347 346 346 344 346 346 343 343 343 338 331 328 326 325 320 315 310 305 302 304 306 312 328 331 333 335 336 336 335 333 332 330 328 326 325 324 323 322 321 322 321 322 321 323 323 323 320 317 314 313 314 312 315 315 313 313 310 310 307 303 300 300 300 301 299 299 296 293 293 294 292 286 283 282 281 273 270 267 267 268 266 264 264 265 265 265 266 272 274 276 275 273 272 269 266 263 263 263 260 255 254 253 250 250 250 248 246 245 239 237 233 231 228 228 227 227 227 227 228 228 228 229 228 227 224 224 223 224 223 221 220 220 219 218 217 216 215 215 214 215 216 215 213 212 211 212 212 212 212 212 214 215 216 217 218 219 218 218 220 224 229 228 229 229 227 224 223 223 226 225 222 215 210 207 205 199 189 180 176 168 160 144 137 131 129 141 150 159 165 177 183 186 188 193 196 197 194 190 189 187 186 191 194 194 194 195 197 195 188 177 171 181 175 170 170 169 168 162 162 157 150 133 127 129 140 173 181 207 218 235 241 244 243 242 245 249 257 272 279 282 282 282 282 282 282 280 271 268 266 264 264 264 266 268 275 275 273 270 266 263 259 256 251 244 237 234 233 236 241 244 234 232 227 223 223 223 224 216 195 192 189 189 185 181 179 176 181 187 186 181 170 170 169 166 157 153 149 146 145 145 144 142 144 145 148 150 150 152 152 152 154 152 150 152 158 171 170 166 161 155 148 140 134 119 114 111 109 104 109 110 109 107 107 106 105 101 99 96 94 95 94 89 81 74 73 72 70 66 66 65 64 65 64 65 66
578 584 587 584 587 590 592 590 586 581 580 581 577 575 572 571 568 567 564 560 553 553 553 554 559 563 564 560 557 553 548 545 543 539 535 532 528 528 525 521 514 509 504 498 479 472 469 464 467 478 488 500 518 527 534 539 551 552 550 547 540 534 527 519 505 499 495 496 508 519 530 538 544 546 548 549 548 537 532 526 529 533 535 535 533 519 501 479 473 456 452 450 452 460 463 467 473 480 483 489 496 508 514 521 526 531 530 527 526 525 524 519 511 492 487 484 480 467 460 453 450 448 450 456 468 497 501 502 505 500 500 501 500 503 497 492 489 494 495 493 492 498 496 494 493 494 493 493 493 490 486 482 477 474 466 458 453 450 457 464 472 476 478 478 479 480 479 478 478 477 475 476 475 472 465 465 466 469 470 472 473 475 476 477 478 477 478 477 477 481 479 478 477 478 474 472 471 470 468 467 467 464 462 462 462 459 455 453 451 450 444 443 438 434 428 426 426 427 430 433 430 429 421 416 415 417 423 439 443 445 445 452 449 448 446 446 447 446 445 444 443 443 443 439 437 437 437 437 434 432 433 432 432 433 433 431 431 429 427 424 425 424 423 420 418 415 414 410 408 407 405 403 402 403 402 402 400 397 397 398 397 396 396 396 400 400 399 399 400 397 394 391 391 391 389 387 378 376 374 370 365 364 363 365 367 368 368 369 368 365 362 361 362 363 364 364 367 366 366 366 363 359 357 356 352 351 350 349 343 340 337 337 328 335 339 335 331 328 323 320 313 310 306 303 308 305 307 313 328 331 330 331 332 333 332 332 331 328 326 325 324 321 320 319 319 320 321 322 323 321 322 322 321 317 315 310 310 312 309 310 309 311 309 307 305 300 301 302 302 301 300 299 295 293 292 292 292 284 283 284 282 274 268 266 265 268 267 267 270 272 273 272 272 275 275 274 275 273 268 266 263 260 261 260 260 257 253 252 253 251 246 243 242 240 236 233 231 230 227 227 228 229 228 228 228 228 228 229 227 226 224 224 226 223 222 220 221 220 219 217 217 216 216 215 215 215 215 213 212 212 211 211 211 212 210 209 209 210 214 215 216 218 216 216 216 218 228 230 230 232 231 223 220 221 223 224 221 215 212 207 204 198 188 182 177 167 159 144 137 131 131 140 152 162 170 182 187 189 191 196 198 199 199 201 202 201 201 211 216 217 215 209 210 209 204 193 187 181 190 181 178 175 174 170 168 165 159 133 122 117 124 156 176 191 202 218 222 228 230 230 236 236 241 248 268 274 278 280 283 284 286 288 279 277 274 270 264 266 266 267 274 276 276 275 272 268 264 260 259 255 251 247 242 247 249 250 247 243 238 233 229 230 227 223 215 211 210 205 193 189 184 183 189 191 189 181 175 171 170 168 160 158 156 154 151 147 146 147 148 153 158 159 158 159 158 158 158 158 159 161 165 165 165 163 159 156 151 144 138 120 115 111 109 108 109 127 125 124 123 121 116 102 100 97 98 100 97 91 84 76 75 74 70 65 66 68 67 67 65 66 67
572 576 579 584 583 586 591 592 586 584 580 577 573 572 571 568 565 563 561 558 555 556 559 560 562 563 563 560 559 556 551 547 542 540 539 535 527 525 524 521 513 508 504 498 481 475 469 463 469 477 486 496 513 521 530 537 551 553 552 549 540 533 525 516 509 500 497 499 504 519 529 536 543 550 551 554 552 544 535 534 533 535 534 533 532 520 509 486 473 456 455 457 459 468 467 467 468 473 478 482 486 499 508 518 524 532 532 529 527 524 523 517 509 497 495 491 489 476 466 458 455 452 450 452 464 495 502 505 505 502 500 501 501 497 493 490 489 493 501 499 496 497 498 495 494 494 495 495 495 493 484 482 477 474 467 461 456 455 465 472 478 482 486 485 485 483 479 477 477 479 478 478 475 472 467 464 463 467 470 472 473 475 476 478 479 477 479 479 479 480 480 479 479 479 475 473 472 473 473 471 469 467 467 466 465 460 456 452 452 450 444 436 433 430 428 432 433 436 440 435 434 432 430 420 417 420 426 438 442 443 445 448 448 449 448 447 447 447 448 447 445 443 444 442 438 438 438 440 439 435 434 434 434 433 432 431 431 425 426 425 424 422 425 422 420 419 416 412 409 408 407 405 404 402 400 400 398 395 396 395 394 392 390 390 395 397 398 399 399 396 394 391 387 385 385 383 378 376 376 375 367 364 363 364 364 364 362 365 365 362 360 362 360 357 359 361 366 365 367 367 363 360 357 356 352 350 349 349 342 339 336 337 330 324 326 330 333 328 314 308 307 306 305 306 307 311 315 321 330 332 332 332 335 332 331 330 329 326 325 324 322 320 320 321 321 321 320 321 317 318 321 321 321 317 313 311 311 309 309 303 304 306 305 304 302 301 301 303 304 302 301 300 294 289 289 290 291 286 286 287 286 282 278 274 273 276 277 276 275 276 277 276 275 274 274 274 273 272 268 266 263 263 261 262 260 259 252 249 252 249 242 240 239 237 234 231 229 227 229 229 229 230 230 229 228 227 227 227 227 227 225 222 222 222 222 220 220 220 219 219 220 219 217 215 214 213 212 213 213 213 212 212 212 211 209 209 208 208 211 214 216 219 217 214 213 213 216 225 228 229 229 227 220 219 220 222 220 215 212 207 203 196 190 184 180 171 162 146 136 133 134 142 152 166 175 184 186 189 192 199 205 210 213 217 218 218 219 226 227 227 227 221 219 217 212 203 197 192 190 187 182 178 176 172 170 169 160 139 130 118 118 128 161 178 187 195 203 204 206 208 222 226 230 237 256 263 270 275 279 281 285 288 284 277 272 271 269 266 269 267 271 273 275 274 272 271 270 268 266 265 263 258 254 254 253 255 257 255 250 243 234 234 233 233 230 228 227 224 211 204 199 194 194 196 195 188 181 177 174 171 168 161 158 155 154 148 147 149 151 158 161 162 162 165 166 165 165 165 166 168 169 173 170 166 163 157 153 147 141 125 120 117 117 122 125 127 144 140 136 130 124 107 104 103 102 101 99 91 82 74 72 72 70 68 68 69 72 69 68 67 67
571 574 579 579 583 586 588 590 586 584 579 574 570 573 574 574 571 570 569 567 564 563 563 562 565 566 564 561 556 555 555 554 553 548 546 541 523 521 518 516 513 509 503 497 480 471 466 463 472 479 489 496 511 519 528 536 542 552 553 551 547 536 526 516 507 499 497 500 505 517 526 535 541 550 553 554 552 545 538 538 537 537 536 535 533 525 515 497 482 461 455 466 471 473 470 467 466 470 472 475 481 496 505 514 519 528 531 532 528 525 524 521 517 506 503 502 503 487 475 469 467 457 453 455 463 489 499 502 505 506 502 501 501 502 494 492 492 496 503 501 500 500 495 493 492 492 494 494 495 493 484 480 473 469 466 462 459 457 468 470 475 478 483 484 483 482 479 478 478 478 479 479 476 473 467 467 466 467 475 477 478 476 477 479 479 480 483 482 481 482 482 480 479 479 480 477 473 474 472 473 472 471 469 466 464 460 457 454 451 445 440 437 437 436 433 432 448 449 447 442 441 439 435 422 417 416 422 436 441 443 445 445 447 447 447 449 449 449 448 447 445 442 441 437 436 436 436 436 437 436 434 433 432 431 430 427 426 425 426 426 424 423 423 420 417 417 418 417 410 410 408 408 404 402 400 399 393 392 391 392 393 388 384 382 387 391 393 395 396 394 392 390 384 387 387 386 378 377 376 373 368 366 364 365 362 359 359 360 363 361 359 359 357 357 358 361 361 361 361 360 357 355 356 355 352 349 347 345 340 339 339 337 325 325 324 318 320 320 314 308 302 304 309 310 316 327 332 334 335 335 336 335 334 331 329 327 327 324 322 321 321 323 322 320 319 319 317 315 315 317 318 319 318 313 310 309 308 304 303 303 302 304 304 302 300 301 301 301 301 299 298 297 292 286 285 285 285 286 287 287 287 285 285 283 281 282 284 282 281 281 282 280 277 275 273 276 276 274 268 266 267 268 265 266 262 260 253 251 248 244 239 238 235 232 231 230 229 228 228 228 230 231 230 230 229 229 230 230 229 229 230 228 223 221 219 219 219 219 221 219 218 217 216 216 215 215 213 213 212 212 211 211 210 210 210 212 212 212 212 210 213 214 214 214 215 212 217 224 226 227 229 222 219 218 218 219 218 215 212 207 200 192 187 183 180 175 170 151 140 134 132 147 160 173 180 185 186 188 192 206 215 221 225 228 230 230 233 235 236 234 234 230 224 219 215 208 204 200 198 192 182 176 173 171 170 166 160 154 133 119 115 120 150 162 173 178 181 181 183 185 197 209 217 229 247 253 260 267 274 277 281 285 279 272 268 269 272 271 269 270 268 268 269 274 273 270 269 267 265 263 261 258 255 255 255 256 261 262 261 259 246 242 239 240 239 238 236 234 232 222 219 213 210 209 204 198 191 177 176 172 169 162 159 158 157 153 152 151 154 161 164 165 166 168 167 167 169 171 171 172 176 177 173 167 163 157 152 147 142 129 127 128 131 142 145 146 144 145 139 134 128 111 108 106 105 104 101 93 80 70 69 69 73 73 74 74 74 74 70 69 69
568 570 575 578 584 586 588 585 584 583 580 575 575 575 575 575 574 573 572 569 564 563 563 565 568 569 565 565 560 558 557 558 557 553 544 536 522 518 516 515 508 502 496 492 476 464 460 463 467 479 487 495 504 518 526 535 543 553 553 550 548 539 533 521 511 501 501 504 510 521 529 536 543 555 556 554 551 541 540 540 542 545 546 545 542 532 522 509 498 472 465 466 477 476 473 471 471 468 464 467 473 492 501 509 516 530 532 533 532 530 528 525 520 513 512 512 507 503 485 478 471 463 451 452 458 465 483 494 501 505 506 505 504 502 498 497 495 497 504 500 499 499 499 499 498 496 494 494 494 492 484 477 468 464 464 463 462 463 469 471 473 477 484 483 482 483 483 483 482 479 479 478 478 475 469 467 468 469 475 477 478 479 480 482 484 484 482 482 482 483 485 485 484 481 479 475 474 473 472 472 472 470 468 461 459 458 455 448 443 439 440 444 446 447 446 446 448 451 448 445 442 437 432 422 420 422 426 438 442 444 446 448 450 448 449 450 451 451 449 445 445 445 442 437 436 435 436 436 436 435 432 429 427 426 426 426 426 426 426 428 427 425 425 426 420 419 418 417 417 414 412 411 407 406 403 400 391 385 382 384 388 386 383 381 381 382 388 391 390 390 391 389 388 390 391 388 381 378 376 373 373 371 368 366 361 360 358 358 362 362 360 358 355 355 357 360 358 358 357 357 355 353 353 351 349 346 342 340 337 335 338 339 336 326 325 321 318 309 304 301 302 308 310 318 327 334 335 334 333 333 332 331 330 328 327 325 326 322 321 320 322 321 320 319 316 315 315 315 316 315 315 315 314 309 307 306 306 304 303 302 302 303 302 301 299 298 297 297 298 296 295 293 290 287 285 285 284 284 285 286 287 286 288 287 288 287 290 291 291 291 286 282 277 275 273 274 275 274 269 268 267 268 267 264 260 256 249 247 243 241 237 236 234 231 228 229 228 228 229 230 231 232 235 235 233 232 234 234 232 233 232 230 225 223 218 218 218 218 220 219 218 217 216 216 215 215 214 214 213 213 213 214 215 213 213 211 210 209 210 209 212 211 211 210 211 211 210 218 221 223 222 217 215 216 216 217 215 210 207 204 200 191 187 184 181 175 169 148 139 135 132 146 162 173 179 188 191 195 201 214 220 223 229 240 244 244 243 240 242 243 241 237 226 222 221 221 214 210 199 193 182 172 170 169 171 165 156 148 123 115 112 114 137 149 159 164 172 174 175 176 185 196 208 219 238 244 250 257 267 269 269 270 270 269 266 268 271 274 272 270 269 271 273 276 276 275 272 270 269 269 266 261 253 253 253 254 259 260 259 258 254 245 245 247 246 242 240 238 236 232 230 227 224 218 213 206 199 180 176 172 175 165 161 162 163 159 157 158 161 168 170 171 174 179 179 178 178 178 176 174 176 176 174 168 163 158 156 151 147 138 136 136 141 150 152 152 152 145 144 139 129 113 109 105 102 102 100 89 77 73 66 67 70 73 74 74 75 73 72 70 70
570 572 574 579 586 587 587 585 584 584 582 580 582 581 580 578 575 576 576 575 569 566 567 569 571 569 568 567 567 564 561 558 557 553 545 536 522 520 516 512 505 491 487 484 478 465 464 466 468 480 487 496 503 520 525 534 544 551 550 550 550 543 540 532 521 504 506 511 519 525 530 538 546 555 556 554 553 546 543 543 545 548 547 544 539 528 519 510 500 479 476 474 477 470 471 473 474 470 467 468 471 489 498 508 517 530 534 536 537 536 532 529 525 521 517 513 506 500 486 478 468 460 450 450 451 453 466 478 488 495 504 507 508 506 498 499 497 498 503 499 499 500 499 499 500 499 495 494 495 492 482 474 466 461 461 464 463 467 470 471 473 477 484 485 484 486 488 487 486 482 478 479 481 477 470 469 468 474 475 476 477 480 481 481 480 479 478 479 480 481 481 485 484 482 481 476 473 472 472 469 468 467 464 459 458 454 449 441 439 440 445 453 455 456 455 454 453 451 448 442 437 432 430 430 432 432 435 444 445 445 445 451 451 450 451 452 452 452 450 445 445 444 443 441 441 439 437 438 438 436 436 434 430 429 429 428 427 428 427 428 426 426 425 426 419 418 416 416 420 420 418 415 407 406 405 402 387 382 379 380 386 388 386 383 379 379 380 382 385 387 391 393 387 386 387 388 386 385 381 376 373 370 366 363 361 359 361 360 363 362 361 357 350 349 351 354 352 353 353 352 352 349 350 348 345 340 335 332 330 331 334 334 331 332 329 325 317 308 303 300 301 308 320 327 332 334 333 330 327 329 328 327 328 325 325 323 325 324 323 322 320 317 316 316 313 311 311 312 313 311 310 310 308 306 306 305 304 304 303 303 305 303 301 299 299 299 296 291 291 291 291 289 288 287 286 286 286 286 285 286 287 286 286 287 285 285 288 291 294 293 285 281 277 273 274 274 272 271 268 265 264 267 267 263 258 253 244 242 239 239 235 234 232 230 230 230 230 231 232 232 233 234 238 237 236 236 237 237 234 233 232 229 226 225 222 218 218 218 220 218 218 216 215 217 215 214 215 212 214 214 213 212 213 212 212 211 211 211 211 211 212 212 212 211 208 209 210 213 217 220 220 215 213 213 213 214 211 208 205 200 197 191 186 184 180 173 165 143 137 131 132 148 163 170 176 191 199 204 209 216 221 228 238 246 255 254 251 245 240 240 237 236 227 224 223 223 218 212 200 191 178 172 170 169 168 160 150 137 117 112 109 110 125 134 150 162 166 167 169 171 185 192 199 208 222 233 239 249 260 261 263 264 263 264 262 262 265 268 272 272 269 268 270 271 273 274 274 271 268 267 267 263 259 256 255 254 256 255 252 249 247 244 247 247 247 242 241 238 235 230 229 227 225 223 217 208 200 185 181 178 175 170 167 167 168 163 160 159 162 171 175 179 181 182 183 185 186 186 187 190 192 191 184 176 169 162 161 158 155 149 149 150 155 156 153 152 152 152 144 139 122 112 102 97 94 96 89 80 73 70 68 69 71 72 71 70 69 69 71 69 68
573 576 575 578 585 588 587 584 584 584 582 581 580 579 576 573 573 574 575 576 579 577 577 577 573 570 567 565 564 563 560 559 558 551 544 535 529 524 520 515 507 488 483 479 474 468 470 473 475 484 489 496 509 521 525 531 541 551 551 552 552 547 546 541 529 511 511 518 524 528 533 539 545 552 551 553 552 550 545 542 542 547 544 538 531 517 509 503 498 476 471 471 470 470 474 473 476 479 477 477 475 477 496 506 516 524 531 535 539 539 537 535 533 529 523 514 507 500 484 476 470 465 456 453 450 448 456 465 477 487 497 506 509 510 502 499 499 498 502 502 501 499 498 498 501 500 495 493 493 491 482 476 469 461 456 459 463 469 477 479 480 483 491 492 490 490 489 489 488 483 479 477 479 477 475 473 473 474 478 476 477 479 480 481 483 482 482 481 481 482 482 482 480 479 479 474 472 470 468 464 464 463 460 457 455 453 449 443 443 446 452 458 459 459 459 456 451 447 445 442 432 428 427 434 436 437 439 446 448 447 446 451 452 452 453 453 452 450 450 446 445 446 448 447 444 441 440 439 438 435 434 433 430 430 430 430 428 429 428 426 426 427 422 420 416 415 413 412 416 417 416 413 410 405 399 390 383 382 383 382 385 387 388 387 378 377 376 377 378 377 385 391 389 388 389 391 387 385 383 379 374 370 368 364 359 360 364 363 363 366 364 359 353 344 342 345 349 348 347 347 345 343 343 341 340 335 331 328 326 330 331 328 327 331 329 323 316 305 302 303 306 314 320 333 332 330 329 330 330 329 328 326 325 322 321 321 322 325 323 321 318 313 313 310 308 309 311 311 310 308 308 308 307 303 301 302 300 301 300 302 305 305 301 299 299 299 294 291 293 292 290 288 286 284 286 287 286 285 285 285 283 286 281 280 281 281 283 285 288 289 279 277 274 272 272 270 269 268 266 266 264 265 265 263 253 249 244 243 239 237 235 234 233 233 232 231 230 231 231 232 234 235 237 236 236 236 236 237 235 233 233 231 230 229 227 221 219 218 219 217 216 216 216 217 216 216 216 213 213 216 216 215 216 215 212 213 213 213 212 212 213 213 213 211 210 209 210 211 213 216 215 213 211 210 210 208 207 205 202 198 196 189 186 184 179 169 158 141 134 133 135 155 163 169 175 183 201 207 211 215 228 239 250 254 255 253 251 247 243 244 244 241 230 229 228 225 219 210 202 195 178 173 170 171 164 151 140 128 115 113 108 108 116 125 141 155 163 166 169 173 188 192 196 201 214 220 230 239 250 254 256 256 257 258 259 258 262 262 266 267 267 268 270 268 269 270 269 267 265 266 265 264 263 260 258 255 250 245 243 242 242 240 241 242 240 235 233 232 234 234 233 231 230 226 221 213 204 191 185 180 177 170 171 169 169 165 164 164 166 178 181 184 186 185 187 191 196 201 200 199 199 200 196 188 176 167 166 163 163 164 164 166 168 164 152 150 150 150 143 137 122 104 93 87 84 82 77 74 73 73 72 72 71 71 69 67 66 64 64 63 62
574 575 575 578 586 588 587 585 585 584 577 576 574 572 567 563 563 561 562 567 570 575 576 575 574 567 564 563 561 558 557 555 553 548 542 535 529 524 521 518 513 495 487 481 474 471 473 477 482 490 493 499 509 523 526 532 539 548 550 553 553 545 545 542 529 512 516 520 524 530 533 537 541 550 552 553 553 550 546 543 542 544 538 532 525 505 501 496 489 471 468 467 470 473 474 488 489 488 486 485 482 478 490 501 507 517 528 532 537 539 536 534 532 529 520 514 501 495 484 479 475 474 473 466 460 455 456 461 471 486 501 507 509 513 506 502 499 500 500 503 501 500 501 500 502 501 501 500 498 496 483 477 471 461 452 455 460 467 478 484 488 490 489 490 490 490 490 490 489 487 484 479 479 478 476 477 477 477 478 481 480 481 483 485 487 488 487 481 482 481 481 483 480 477 478 471 467 466 463 457 455 453 452 455 457 457 453 453 454 458 462 465 465 463 462 457 452 448 446 438 432 426 428 435 439 446 448 449 451 451 450 449 451 452 453 454 453 450 449 445 444 445 446 446 446 444 441 438 437 434 431 429 428 427 429 429 427 428 429 429 427 427 421 417 413 415 413 411 412 410 411 412 409 405 394 385 384 385 387 386 392 396 396 393 384 383 382 380 376 373 375 382 393 395 393 390 383 382 381 377 374 371 368 361 359 356 362 358 359 362 362 360 355 346 343 342 343 341 338 336 333 335 337 338 336 330 326 323 325 328 324 321 319 326 326 323 320 309 307 308 312 326 333 333 330 327 328 328 329 325 323 322 321 320 319 320 324 324 323 321 319 315 314 312 309 308 311 312 311 306 305 306 306 303 302 301 302 302 300 301 303 303 300 299 297 296 291 290 289 290 287 286 285 284 288 287 285 285 284 284 284 284 282 277 278 279 281 285 287 285 278 273 270 271 270 269 267 264 261 260 260 261 260 257 253 246 244 243 239 235 237 235 233 234 232 232 233 236 236 236 237 238 238 237 236 235 236 237 235 234 232 230 230 229 229 221 219 217 217 216 217 217 217 218 216 217 216 215 215 216 215 214 215 214 213 212 212 211 210 210 211 213 215 213 210 207 208 214 213 211 211 210 210 210 209 207 206 203 197 192 190 190 188 184 179 165 156 149 135 133 138 151 167 172 176 183 200 206 212 219 242 250 254 254 254 255 252 248 243 242 242 241 233 233 232 229 218 212 203 194 179 176 174 171 158 147 136 126 117 114 110 107 111 120 133 146 165 171 177 182 190 196 200 204 208 212 217 221 233 241 246 248 249 250 251 254 255 258 261 262 264 266 266 268 268 268 266 264 262 262 261 260 260 258 257 254 250 241 239 237 235 233 234 234 231 230 231 231 232 234 234 235 234 226 222 215 208 197 190 185 183 177 171 175 173 173 172 173 177 183 183 186 189 194 196 202 209 217 218 217 214 207 201 194 185 178 172 173 174 176 176 175 167 163 153 154 158 154 138 125 114 104 81 77 74 70 66 67 68 71 72 70 70 69 64 62 61 60 60 62 62
571 573 575 578 585 587 588 587 582 579 577 572 571 564 560 557 558 556 555 554 555 562 562 563 564 559 557 557 555 550 549 549 548 543 540 535 531 524 523 522 517 503 497 486 473 472 478 485 490 495 497 504 512 523 527 533 537 544 549 553 552 545 544 538 528 514 513 521 526 532 535 538 540 547 550 553 552 549 547 545 543 542 538 536 524 517 498 490 482 477 472 475 482 487 487 488 494 495 503 498 486 479 484 491 499 511 528 535 538 541 536 532 529 524 508 495 487 483 480 480 480 481 483 480 474 471 462 462 468 480 504 506 509 512 508 504 501 500 500 502 503 501 505 501 500 499 499 498 495 492 482 476 469 457 449 447 450 456 462 476 484 489 490 490 491 493 491 491 489 487 486 484 481 479 478 482 483 483 482 481 484 481 481 485 486 486 486 489 488 486 485 482 478 477 477 469 464 463 460 454 453 451 450 454 458 459 459 462 464 466 466 465 465 464 461 456 453 449 444 432 426 426 432 437 447 450 451 450 452 453 452 453 455 455 455 455 453 449 447 446 444 444 445 446 444 443 441 436 432 433 431 431 427 427 428 427 426 426 428 427 423 422 421 416 414 410 411 408 409 409 409 410 408 404 396 389 388 392 394 395 399 402 399 396 386 382 380 379 376 373 375 380 388 395 391 388 386 384 380 377 375 369 364 361 353 352 354 358 361 359 359 356 352 348 344 344 343 340 333 329 327 328 330 331 331 326 323 317 315 315 316 319 317 324 324 324 323 318 315 316 324 335 335 332 330 325 326 325 325 322 320 319 319 317 318 318 319 323 323 320 319 317 313 311 310 309 310 310 306 305 303 306 306 303 299 297 300 301 302 303 304 304 300 298 297 296 289 285 284 284 285 284 285 285 285 286 284 283 282 282 281 283 280 279 277 277 278 280 281 280 275 271 270 268 269 268 266 264 259 258 257 257 254 251 248 246 242 240 237 234 234 236 234 234 234 236 237 237 238 238 240 239 237 235 235 235 236 238 235 231 227 225 225 224 224 222 222 221 218 218 218 218 219 217 218 217 217 214 214 215 214 213 214 213 213 213 213 212 211 211 211 213 214 212 209 206 206 209 210 210 210 209 208 208 208 210 208 202 195 191 189 188 188 185 175 165 156 150 138 135 138 156 174 178 183 188 199 204 210 220 248 252 253 256 255 256 254 252 245 242 242 243 234 233 231 228 217 212 201 190 176 173 171 169 158 142 134 128 116 113 108 105 108 115 126 138 162 172 179 184 191 201 207 209 209 205 206 208 213 224 231 235 236 240 244 247 249 252 253 255 259 261 264 266 268 256 257 257 253 249 251 252 254 254 254 253 250 241 235 230 226 224 223 223 223 223 225 226 228 229 230 232 234 232 231 229 226 216 208 200 195 184 178 175 184 184 184 185 187 189 191 193 198 202 211 217 223 229 236 233 227 214 203 197 192 186 185 185 185 184 182 175 170 167 164 165 161 154 135 123 109 97 81 74 70 66 65 66 68 70 68 67 66 66 63 63 61 59 62 66 67
571 575 576 581 584 585 585 583 582 575 574 572 571 560 555 553 553 553 551 549 548 546 547 546 545 547 547 547 545 542 543 544 543 537 538 537 534 524 523 521 515 502 497 483 472 473 481 492 496 500 503 508 514 523 527 531 534 542 547 551 552 546 543 538 527 515 520 524 533 539 540 541 542 547 549 550 548 543 541 542 543 542 537 532 523 515 499 489 482 477 475 480 486 492 497 494 494 495 517 507 494 487 487 490 497 507 528 533 538 538 535 532 527 521 495 483 481 479 478 481 485 489 496 491 487 483 469 464 465 476 496 500 505 510 511 509 506 501 502 502 500 501 505 504 501 500 499 497 495 491 487 473 463 450 444 446 447 450 454 467 477 485 488 492 493 493 493 491 491 489 488 483 482 481 480 485 486 485 485 486 484 481 486 488 489 489 488 489 488 486 486 481 476 475 474 468 466 467 467 462 460 457 456 457 460 461 462 467 468 468 466 463 462 460 458 456 451 446 437 431 425 428 432 446 449 451 452 453 452 453 454 456 458 458 458 459 455 451 449 449 448 446 444 443 441 440 437 432 432 432 431 432 427 427 428 427 424 424 424 421 421 421 419 416 416 415 411 408 408 408 406 406 405 404 402 400 398 399 399 399 397 396 397 396 392 382 379 379 376 372 373 376 382 391 389 385 384 381 379 376 372 366 362 357 353 346 349 354 357 356 354 352 351 350 346 344 340 333 329 325 324 326 327 327 326 324 322 319 317 316 318 316 313 317 319 319 323 321 324 330 333 333 331 329 327 325 326 324 324 323 323 321 320 318 317 317 317 318 322 319 317 316 311 311 312 311 309 308 305 303 303 304 304 302 296 298 298 300 300 301 300 302 299 297 296 294 289 282 281 284 282 283 284 285 285 286 284 284 282 280 280 282 276 277 277 276 276 278 281 280 277 274 272 270 269 267 265 264 261 257 256 255 254 248 247 244 242 241 239 237 237 237 238 237 237 238 239 239 239 240 243 244 244 245 243 239 236 232 231 228 225 224 225 225 224 223 223 222 220 217 217 218 218 217 217 217 217 215 215 215 215 215 215 213 214 214 211 211 211 210 210 211 211 212 209 207 205 205 208 208 206 206 203 204 205 205 206 200 193 188 188 189 186 180 169 162 156 150 133 130 141 158 179 181 184 190 205 209 214 228 252 253 254 254 255 257 258 256 249 247 248 249 241 238 235 229 214 209 202 193 179 176 175 171 153 142 137 126 112 108 106 101 105 111 121 132 148 172 179 183 184 199 205 207 205 201 200 199 201 209 217 224 226 230 233 238 241 245 244 246 251 255 257 258 259 256 241 239 234 232 234 237 240 246 248 249 249 241 235 228 224 221 219 218 216 214 216 218 217 222 226 229 232 235 236 235 235 229 224 218 212 205 189 185 184 188 192 193 195 197 202 203 206 211 220 226 231 237 246 246 244 232 210 207 203 195 192 193 194 193 181 176 177 184 173 168 162 159 139 126 108 91 78 74 68 66 66 65 67 69 69 67 65 66 66 65 64 64 70 72 76
570 572 576 580 583 582 582 578 577 573 572 570 568 560 554 550 548 544 543 541 539 536 536 535 533 534 535 537 536 533 533 534 534 531 532 532 529 525 522 518 513 500 491 481 471 475 484 494 500 510 515 517 519 523 527 531 533 540 545 549 552 549 547 540 530 521 523 532 538 545 548 549 547 549 547 546 545 541 538 537 537 534 527 522 517 512 499 493 488 482 478 483 489 495 507 510 513 519 517 514 499 492 494 496 498 506 525 531 533 534 534 530 525 518 496 489 484 481 480 481 489 497 505 504 501 496 475 466 465 473 491 497 500 504 513 513 512 508 503 500 500 502 505 506 504 501 500 497 494 490 486 467 458 451 448 451 452 452 454 462 470 480 485 488 488 491 493 491 490 489 488 483 481 483 483 482 483 483 483 488 486 486 486 491 492 493 491 489 488 486 484 481 477 475 474 471 469 469 468 469 466 463 462 460 462 462 464 465 467 466 464 463 460 459 457 454 444 438 433 431 429 434 442 446 451 451 452 451 449 450 454 457 459 458 457 456 453 453 453 453 450 447 445 442 439 438 436 434 435 435 433 432 428 426 425 425 422 421 420 420 417 415 416 418 416 412 410 407 407 407 407 408 410 409 409 407 406 404 402 400 397 395 393 390 388 380 380 381 380 371 370 370 378 387 388 386 381 377 374 367 362 357 354 350 347 346 349 353 355 352 350 349 349 349 346 343 338 329 325 322 321 323 325 331 330 331 328 328 324 323 322 321 320 318 318 323 326 333 334 335 335 332 331 331 331 329 326 323 321 319 319 319 319 317 316 316 315 316 318 316 313 311 310 312 310 307 304 300 300 300 303 302 299 295 292 296 298 300 300 300 300 300 296 293 290 289 286 282 283 281 280 280 281 282 283 283 284 282 282 284 282 279 274 274 274 272 272 274 274 277 278 275 272 270 269 265 264 263 261 255 252 254 252 250 247 244 240 241 236 234 236 238 242 243 243 242 242 242 242 245 247 248 246 243 241 238 235 234 232 231 228 227 228 226 224 222 222 221 219 217 218 218 218 217 217 216 215 215 215 215 214 214 213 214 215 215 213 212 211 210 208 209 211 213 213 212 209 206 209 209 207 202 197 198 200 202 202 199 194 189 188 187 182 176 167 162 155 150 133 135 145 162 182 186 189 196 213 216 223 236 252 254 256 254 256 257 259 257 252 251 252 254 251 249 244 238 220 215 210 204 184 177 175 170 156 146 137 128 117 105 100 101 101 107 117 129 147 170 178 183 185 194 198 200 200 198 198 194 192 193 198 202 211 218 220 223 229 236 238 239 240 241 240 240 241 241 241 225 223 225 227 228 229 231 233 235 236 233 230 228 226 222 218 211 204 201 203 203 203 207 214 221 227 231 235 236 238 237 230 226 221 212 196 191 188 188 205 203 204 205 206 209 215 221 231 235 238 245 254 253 248 241 216 213 207 201 197 200 200 194 182 182 191 187 180 168 162 157 139 122 103 87 76 72 68 65 66 66 66 67 69 70 70 69 65 66 67 69 71 84 90
574 574 577 578 581 580 580 578 575 568 566 564 562 557 554 542 537 532 530 530 531 527 524 523 522 523 522 523 524 527 526 526 525 525 525 523 523 522 520 516 512 495 487 478 469 472 485 496 507 521 523 522 522 524 527 530 533 536 546 549 552 555 546 540 533 528 525 531 540 547 547 549 548 550 546 543 541 537 530 530 527 523 516 511 508 507 500 497 492 486 482 487 493 503 519 524 528 530 524 514 502 497 498 502 505 511 524 527 530 533 535 531 523 516 504 498 493 486 479 484 490 502 512 509 505 500 483 465 463 469 478 496 503 506 510 515 516 511 505 500 500 502 508 507 505 503 500 497 493 488 483 463 457 454 453 458 457 455 455 461 465 471 478 487 488 489 489 489 487 486 486 486 485 485 483 479 479 482 485 488 489 488 489 491 494 494 493 490 490 487 484 483 481 479 477 475 471 469 468 470 471 469 470 468 464 463 466 468 468 465 463 462 460 458 454 450 437 434 434 434 441 442 445 448 451 447 447 447 449 451 454 455 457 456 455 453 453 452 450 447 444 442 440 438 437 436 435 436 435 432 432 431 429 425 426 427 425 423 420 418 416 415 414 416 413 412 410 409 408 411 414 414 413 408 406 405 403 401 404 403 402 400 397 391 386 382 385 386 383 371 368 368 374 388 389 387 385 373 365 360 358 352 350 346 344 346 351 353 350 346 344 343 343 341 342 339 335 327 325 325 326 326 330 334 334 331 332 333 331 327 326 323 322 324 327 330 334 337 335 333 332 331 330 330 330 329 324 323 320 320 317 317 316 317 315 314 313 314 317 313 312 311 310 310 309 307 302 297 296 296 298 300 296 292 292 295 296 299 296 294 293 293 293 290 289 289 287 283 283 279 276 275 277 279 280 281 283 283 279 278 278 275 275 270 270 267 266 268 271 272 273 273 270 268 266 263 261 261 260 254 250 250 248 246 244 243 241 237 236 235 239 241 245 248 249 248 246 245 244 245 249 247 244 239 236 235 233 235 233 230 227 229 229 227 225 221 221 221 219 220 218 219 219 218 218 216 215 215 215 214 215 216 216 215 214 214 212 212 211 210 210 210 212 214 218 215 213 210 214 213 211 206 196 195 197 198 199 196 191 188 186 185 181 175 167 162 156 146 133 139 150 165 184 189 195 201 214 221 230 237 254 255 256 256 259 261 262 261 259 259 259 259 263 262 258 249 233 227 222 215 208 186 179 172 167 152 140 128 117 102 99 101 101 106 114 127 147 167 173 180 185 189 190 193 195 197 195 194 190 184 186 190 194 205 209 213 215 228 232 234 235 235 233 231 227 227 226 225 208 215 217 217 220 223 223 223 223 228 231 230 226 217 210 202 197 195 197 199 201 201 201 206 212 217 225 228 231 232 231 231 229 223 205 199 199 202 205 211 209 207 211 215 221 227 240 244 247 248 253 252 247 238 227 216 206 200 202 205 205 197 187 194 198 186 169 162 151 141 121 107 94 85 74 69 66 65 68 69 70 69 69 72 72 69 66 67 71 73 77 91 97
576 575 579 580 581 578 574 572 570 566 564 560 557 547 546 542 527 519 519 520 526 519 517 515 513 513 512 511 511 518 517 517 519 522 522 521 521 520 516 511 506 492 483 473 467 474 487 498 511 521 529 526 525 525 530 531 532 538 546 551 553 551 545 541 536 529 531 535 541 546 545 545 546 546 540 534 532 526 519 517 516 513 508 508 508 507 501 498 493 488 487 490 499 514 528 532 535 536 531 517 502 500 499 505 515 524 525 525 530 535 538 534 525 519 511 508 502 496 482 482 491 506 512 511 507 504 497 466 463 462 467 480 491 500 506 515 516 513 507 503 503 504 508 507 507 505 503 498 494 491 483 463 458 458 461 469 467 463 461 458 460 463 467 477 482 485 488 491 489 487 489 488 487 487 484 482 483 485 487 489 491 492 492 494 494 496 494 493 492 489 485 482 479 477 477 476 470 467 467 469 473 474 474 472 468 467 470 472 469 466 463 462 461 457 449 442 434 434 435 437 442 443 443 444 447 447 449 451 454 454 453 452 455 454 452 450 449 448 447 445 444 442 440 441 438 436 433 434 434 433 434 433 427 426 426 427 425 421 418 416 416 414 415 416 415 417 413 409 410 411 412 413 412 407 405 404 401 401 399 403 401 398 397 392 388 387 388 389 386 373 370 370 374 385 386 385 384 375 370 367 363 358 354 352 350 348 351 350 350 338 337 334 333 334 338 338 336 331 330 333 334 335 337 336 334 336 336 336 335 332 330 332 333 336 338 337 336 335 333 332 332 331 328 328 327 325 321 320 320 319 317 316 315 313 313 314 314 313 312 312 310 309 307 307 308 305 298 295 294 296 298 298 293 289 288 290 294 295 296 295 294 293 290 289 289 287 286 286 283 279 278 278 280 280 281 282 282 282 282 277 275 273 271 269 269 268 267 271 273 272 271 270 268 265 264 261 260 259 259 253 251 245 244 244 243 243 238 233 233 235 242 245 247 251 253 251 249 248 248 247 246 246 244 240 237 236 235 237 234 232 229 227 227 228 226 223 221 220 219 220 219 221 221 220 217 216 215 215 215 214 215 217 216 214 213 212 213 214 213 212 211 211 213 216 219 217 213 212 217 218 215 208 196 196 196 197 198 196 192 189 184 184 181 178 169 162 153 143 134 139 157 168 183 188 195 200 209 218 225 233 249 257 258 259 259 262 262 261 262 265 263 263 263 261 259 255 247 234 230 228 225 196 186 181 175 153 141 126 117 102 97 101 101 107 114 123 142 162 165 168 174 178 181 185 189 192 191 188 184 180 181 182 184 192 200 204 207 215 223 227 229 226 223 221 220 215 213 211 208 204 201 200 203 221 223 218 222 227 239 237 232 224 203 196 191 191 193 194 195 194 195 200 206 209 216 220 221 220 221 224 226 227 218 212 211 212 213 211 222 218 217 220 225 230 243 247 249 248 247 246 242 239 231 222 211 208 206 206 202 192 190 198 191 178 157 142 130 121 103 94 90 84 79 67 66 65 67 72 72 72 72 72 70 68 68 69 70 72 75 89 96
