ncols        132
nrows        37
xllcorner    -1585586.59335
yllcorner    54974.1063488
cellsize     100.007353863637
428.76416015625 432.589599609375 434.91705322265625 452.18304443359375 483.525787353515625 579.270751953125 611.29052734375 605.24755859375 553.273193359375 485.83929443359375 417.2177734375 366.4710693359375 335.680755615234375 299.32708740234375 275.110260009765625 251.8642425537109375 230.308013916015625 222.646575927734375 220.1357879638671875 224.938079833984375 231.8116607666015625 239.9899139404296875 233.2521514892578125 216.7842864990234375 202.5852813720703125 188.551025390625 174.8621978759765625 168.2572021484375 167.225677490234375 178.6516265869140625 187.472747802734375 204.1852874755859375 230.4099578857421875 247.2528533935546875 266.692413330078125 292.460906982421875 306.897064208984375 323.156341552734375 343.45001220703125 356.73968505859375 372.09356689453125 393.6583251953125 408.2623291015625 424.171234130859375 448.01220703125 467.23565673828125 497.4603271484375 524.397216796875 549.98748779296875 601.927734375 644.3953857421875 675.92254638671875 687.8145751953125 664.90399169921875 632.1387939453125 607.35882568359375 597.93157958984375 589.10040283203125 585.49169921875 597.33160400390625 626.86224365234375 687.60748291015625 757.66778564453125 839.938232421875 930.06903076171875 983.42218017578125 1022.67620849609375 1020.46539306640625 975.1875 892.419921875 763.48260498046875 683.3082275390625 624.1788330078125 597.53533935546875 596.56683349609375 599.56549072265625 608.71038818359375 628.53399658203125 635.17242431640625 635.19049072265625 639.13592529296875 659.88775634765625 676.3529052734375 665.5697021484375 647.21728515625 624.7484130859375 610.98907470703125 597.3353271484375 572.86688232421875 555.2952880859375 534.46124267578125 512.33221435546875 505.6607666015625 512.8455810546875 520.699462890625 516.42926025390625 506.597381591796875 485.845062255859375 454.275543212890625 434.279266357421875 433.8092041015625 444.40869140625 432.4774169921875 420.247283935546875 403.245941162109375 386.88702392578125 370.207489013671875 362.77734375 372.98406982421875 397.0103759765625 432.253631591796875 451.573333740234375 453.323394775390625 425.436981201171875 395.757476806640625 364.2274169921875 329.980804443359375 312.183135986328125 297.97406005859375 286.70721435546875 284.69488525390625 280.723785400390625 277.79583740234375 278.2080078125 280.07867431640625 281.8892822265625 282.760772705078125 283.505828857421875 280.165008544921875 275.81390380859375 271.75555419921875 266.163116455078125
450.665130615234375 454.59259033203125 457.289703369140625 474.413421630859375 513.01593017578125 590.115234375 596.03143310546875 586.993408203125 545.985107421875 495.049835205078125 436.494171142578125 382.63250732421875 353.297821044921875 314.36041259765625 285.596832275390625 260.02325439453125 234.063446044921875 220.0855712890625 212.9645233154296875 216.367156982421875 223.7809295654296875 231.47894287109375 220.6011505126953125 205.386444091796875 192.8058624267578125 183.28558349609375 174.6777496337890625 172.348297119140625 172.7352142333984375 184.238861083984375 196.5795745849609375 214.0744781494140625 241.2574462890625 259.9254150390625 274.6934814453125 295.75048828125 310.435760498046875 323.880645751953125 344.2333984375 359.693328857421875 372.981231689453125 392.3358154296875 406.313507080078125 417.67047119140625 437.29254150390625 459.8199462890625 497.603302001953125 531.19439697265625 567.0546875 615.648193359375 650.8897705078125 686.3095703125 710.7994384765625 694.87176513671875 659.51116943359375 618.39923095703125 612.19976806640625 613.929443359375 622.287353515625 632.7303466796875 661.73291015625 724.19232177734375 786.291015625 869.20465087890625 951.09246826171875 979.56353759765625 1004.33349609375 1006.58355712890625 972.84002685546875 901.87298583984375 783.53570556640625 706.1240234375 649.6085205078125 610.70013427734375 603.842529296875 605.7635498046875 611.021240234375 614.7254638671875 601.0848388671875 584.5018310546875 586.409423828125 618.7022705078125 640.07659912109375 629.61114501953125 608.3389892578125 575.74554443359375 558.8927001953125 555.68951416015625 534.07147216796875 511.9429931640625 494.108001708984375 479.21453857421875 476.90777587890625 487.347686767578125 498.27838134765625 511.760528564453125 517.63922119140625 508.722412109375 483.4381103515625 464.84088134765625 473.2828369140625 479.09686279296875 462.068450927734375 444.9500732421875 415.959564208984375 391.123565673828125 365.964996337890625 347.61407470703125 355.243621826171875 381.91009521484375 421.39111328125 442.267578125 449.626434326171875 421.936920166015625 385.951141357421875 352.6614990234375 318.779449462890625 301.33575439453125 291.956878662109375 282.82720947265625 278.43475341796875 274.146881103515625 271.682769775390625 272.0682373046875 274.435791015625 275.70037841796875 274.5997314453125 273.240997314453125 268.877288818359375 264.514129638671875 261.3768310546875 256.58380126953125
478.0142822265625 478.816070556640625 496.0372314453125 523.73992919921875 562.50872802734375 587.4305419921875 567.231689453125 555.5123291015625 531.8431396484375 500.3770751953125 455.4205322265625 397.953643798828125 365.518646240234375 327.648193359375 293.455810546875 262.850677490234375 237.579315185546875 218.1463775634765625 205.372772216796875 205.0100250244140625 209.7628326416015625 213.0656280517578125 203.100250244140625 191.357666015625 183.546417236328125 184.326934814453125 184.3397979736328125 183.7052459716796875 181.9372711181640625 192.369659423828125 207.56396484375 223.28472900390625 244.2529296875 262.36376953125 276.27978515625 295.106536865234375 309.02667236328125 321.01519775390625 338.283233642578125 352.797607421875 365.4630126953125 381.5843505859375 393.973480224609375 405.38287353515625 422.220458984375 449.56695556640625 497.729095458984375 535.448974609375 571.35467529296875 616.43255615234375 647.450439453125 680.98541259765625 711.89306640625 712.24346923828125 691.7159423828125 658.849365234375 652.90728759765625 658.99505615234375 676.6868896484375 694.1353759765625 719.36279296875 783.137939453125 840.60284423828125 904.81427001953125 946.53399658203125 947.60675048828125 941.95025634765625 927.90234375 904.34649658203125 869.43414306640625 804.96502685546875 752.1138916015625 714.59173583984375 671.21832275390625 643.41796875 624.71630859375 592.7064208984375 573.2545166015625 554.851318359375 536.85821533203125 542.57501220703125 567.6705322265625 582.50799560546875 570.67913818359375 549.6396484375 520.375 509.762298583984375 507.37542724609375 486.3580322265625 465.904693603515625 448.713897705078125 441.73065185546875 442.04339599609375 448.86077880859375 458.327606201171875 488.483123779296875 510.8360595703125 520.0125732421875 506.89532470703125 500.8260498046875 515.905029296875 505.8656005859375 483.509033203125 460.72979736328125 422.426513671875 389.767822265625 362.4954833984375 331.401458740234375 327.94158935546875 345.780487060546875 383.74676513671875 415.87744140625 436.28228759765625 410.465240478515625 368.878021240234375 329.968017578125 302.62847900390625 288.204345703125 281.563140869140625 277.430328369140625 272.39691162109375 268.584625244140625 269.4090576171875 270.2176513671875 271.36932373046875 271.1651611328125 267.634490966796875 262.9677734375 257.4539794921875 252.874847412109375 248.497039794921875 244.15380859375
483.165069580078125 490.79254150390625 533.67041015625 570.5736083984375 592.13677978515625 567.7786865234375 532.97137451171875 516.14117431640625 503.689239501953125 484.24365234375 453.777984619140625 404.49383544921875 366.488922119140625 324.241180419921875 289.9052734375 257.879486083984375 230.808990478515625 211.99481201171875 198.71270751953125 196.0941009521484375 198.771209716796875 199.4497528076171875 192.883697509765625 184.4702606201171875 183.342437744140625 188.828887939453125 192.9922637939453125 191.46209716796875 189.520751953125 197.1485748291015625 211.0621337890625 226.88336181640625 243.20501708984375 259.201812744140625 275.14483642578125 292.772308349609375 303.543365478515625 314.91839599609375 330.3914794921875 343.85302734375 357.340362548828125 372.08551025390625 383.57415771484375 397.87359619140625 418.721099853515625 446.5673828125 496.92138671875 536.279296875 565.5289306640625 604.1121826171875 633.84521484375 663.90142822265625 703.3759765625 722.2874755859375 722.88592529296875 703.4632568359375 697.2508544921875 702.97540283203125 724.18011474609375 745.85614013671875 767.0810546875 830.1263427734375 875.57232666015625 909.94451904296875 898.7626953125 879.97821044921875 864.09283447265625 849.74652099609375 832.98065185546875 814.18475341796875 787.055908203125 766.236328125 746.192138671875 713.06689453125 669.578369140625 622.6259765625 554.04541015625 525.172119140625 506.21978759765625 496.59185791015625 511.016021728515625 533.5137939453125 549.96502685546875 533.92047119140625 509.015869140625 481.38214111328125 477.968902587890625 474.53448486328125 460.551971435546875 449.042388916015625 437.503021240234375 431.00714111328125 428.857269287109375 429.948333740234375 435.397247314453125 465.09503173828125 488.986572265625 502.50201416015625 490.861572265625 498.47198486328125 517.10137939453125 510.092864990234375 484.58294677734375 454.753509521484375 416.43145751953125 386.8778076171875 357.1795654296875 319.97235107421875 305.190216064453125 312.8883056640625 349.986663818359375 387.9249267578125 407.01348876953125 383.98150634765625 345.334259033203125 310.411376953125 290.994659423828125 280.1063232421875 275.01171875 275.640411376953125 274.436492919921875 272.998870849609375 273.32672119140625 272.616058349609375 273.15301513671875 272.6219482421875 268.85223388671875 262.7550048828125 254.0237274169921875 247.894073486328125 243.342132568359375 238.259490966796875
496.695159912109375 514.59503173828125 578.21221923828125 610.6241455078125 609.771240234375 548.93048095703125 503.763885498046875 478.133514404296875 471.801513671875 459.91546630859375 438.63970947265625 401.340301513671875 364.197235107421875 315.144317626953125 280.516387939453125 250.4840850830078125 221.3070220947265625 205.0755462646484375 194.0999603271484375 188.21728515625 188.3451080322265625 189.5089111328125 187.26983642578125 183.2251434326171875 185.47479248046875 191.53472900390625 198.4649505615234375 197.7265167236328125 195.581146240234375 198.80902099609375 209.7183990478515625 226.0599365234375 244.95806884765625 258.316986083984375 273.925201416015625 290.02032470703125 296.80340576171875 306.749969482421875 321.241302490234375 332.401824951171875 346.1280517578125 363.4990234375 376.699554443359375 396.129119873046875 427.04217529296875 454.92724609375 496.567474365234375 529.09100341796875 554.193359375 586.63433837890625 613.65655517578125 640.13568115234375 675.8563232421875 707.044921875 730.41748046875 732.1038818359375 733.84375 743.60772705078125 771.42633056640625 795.71685791015625 819.78692626953125 867.39678955078125 883.22259521484375 881.58038330078125 833.7879638671875 805.94842529296875 781.02093505859375 766.50421142578125 762.36865234375 761.37689208984375 763.87628173828125 769.08953857421875 764.9814453125 738.619873046875 687.0484619140625 609.5660400390625 509.845123291015625 481.844451904296875 466.963958740234375 466.720550537109375 480.1719970703125 496.97998046875 511.54705810546875 498.728607177734375 481.747833251953125 461.286163330078125 456.74688720703125 450.3792724609375 441.485321044921875 437.217376708984375 434.41973876953125 433.723052978515625 433.87939453125 436.6256103515625 437.705902099609375 450.11663818359375 466.7635498046875 473.928131103515625 457.979095458984375 466.900054931640625 483.938446044921875 490.710784912109375 470.53375244140625 442.430999755859375 407.475677490234375 385.111297607421875 359.121734619140625 322.589202880859375 297.16131591796875 288.68365478515625 317.5860595703125 358.3642578125 373.763641357421875 351.2401123046875 315.81976318359375 289.573577880859375 274.7027587890625 269.60882568359375 271.67999267578125 279.77130126953125 284.78851318359375 287.005340576171875 286.177886962890625 282.603973388671875 280.023712158203125 278.10614013671875 275.15008544921875 269.281982421875 259.282012939453125 251.5896759033203125 246.3394317626953125 236.876312255859375
546.888427734375 579.94342041015625 635.841796875 637.97442626953125 609.16204833984375 533.28387451171875 489.885101318359375 454.525146484375 438.395965576171875 432.425872802734375 417.4071044921875 384.124847412109375 348.7166748046875 293.068634033203125 256.58709716796875 235.136199951171875 211.3029327392578125 197.7604217529296875 190.53192138671875 186.5604095458984375 185.3403778076171875 185.2297210693359375 184.315216064453125 184.34490966796875 186.4028167724609375 191.19305419921875 200.4185333251953125 204.83636474609375 204.4974822998046875 206.440338134765625 213.8134765625 228.91339111328125 248.8659820556640625 261.207794189453125 276.161163330078125 288.958099365234375 293.021881103515625 298.188079833984375 309.310943603515625 321.094573974609375 337.4847412109375 360.282806396484375 378.927337646484375 400.045166015625 438.347808837890625 467.639984130859375 495.533935546875 513.86016845703125 531.5882568359375 552.6142578125 572.6412353515625 594.4281005859375 623.34832763671875 651.67913818359375 684.32354736328125 718.81024169921875 742.566162109375 775.8353271484375 823.809326171875 851.325927734375 867.92138671875 863.45062255859375 828.60369873046875 780.13494873046875 717.12445068359375 700.9775390625 689.03955078125 684.06634521484375 687.809326171875 699.41351318359375 728.6492919921875 757.12506103515625 780.89288330078125 753.7208251953125 688.10333251953125 601.580322265625 497.92230224609375 457.39105224609375 440.24688720703125 441.001953125 450.94476318359375 461.776336669921875 465.417633056640625 456.95758056640625 451.111419677734375 440.256683349609375 435.391510009765625 434.924560546875 432.230072021484375 431.10369873046875 432.286712646484375 437.344085693359375 444.557159423828125 456.504638671875 450.126007080078125 435.103118896484375 431.70916748046875 427.16632080078125 415.452667236328125 417.347259521484375 437.5535888671875 451.780975341796875 438.74053955078125 425.88153076171875 400.32666015625 381.946197509765625 367.205230712890625 333.0992431640625 300.546722412109375 274.467803955078125 283.627105712890625 310.697418212890625 321.537200927734375 303.283660888671875 277.2490234375 263.17138671875 254.7469635009765625 260.73541259765625 277.169097900390625 297.35101318359375 308.105926513671875 310.655548095703125 309.475799560546875 304.44061279296875 297.68756103515625 292.440765380859375 288.495269775390625 282.40948486328125 272.884979248046875 266.11370849609375 260.510040283203125 247.8447113037109375
588.03582763671875 622.86126708984375 647.20538330078125 631.2718505859375 592.75872802734375 521.56231689453125 481.40130615234375 443.995880126953125 415.531036376953125 407.044403076171875 394.114898681640625 361.034149169921875 325.866058349609375 272.6964111328125 239.79278564453125 220.7373199462890625 204.3761444091796875 193.700439453125 187.2761688232421875 186.165252685546875 185.7152099609375 185.245941162109375 184.1616668701171875 184.3866424560546875 186.5542449951171875 190.6276702880859375 202.7518310546875 211.2381134033203125 212.919158935546875 217.7978973388671875 226.4579010009765625 239.164337158203125 254.23907470703125 266.907684326171875 280.814849853515625 292.179229736328125 296.282806396484375 298.58978271484375 309.789459228515625 323.043212890625 339.796600341796875 363.920501708984375 386.60833740234375 408.5067138671875 440.856292724609375 463.106414794921875 484.228424072265625 497.41253662109375 511.18414306640625 529.5772705078125 545.5172119140625 560.17120361328125 584.7994384765625 610.92047119140625 646.1968994140625 696.5106201171875 731.87762451171875 773.869873046875 830.2713623046875 861.484375 871.78875732421875 820.7325439453125 754.40655517578125 698.70440673828125 642.5302734375 623.50225830078125 619.33001708984375 623.01129150390625 636.28424072265625 657.77972412109375 691.76824951171875 724.45904541015625 759.33148193359375 745.68914794921875 684.09527587890625 607.41217041015625 510.777008056640625 460.235137939453125 437.65631103515625 430.877197265625 433.37811279296875 438.354644775390625 441.767578125 440.357391357421875 438.62158203125 431.842193603515625 430.024383544921875 432.254547119140625 432.5166015625 431.9820556640625 433.21185302734375 440.061859130859375 446.214111328125 451.27154541015625 438.176971435546875 411.971588134765625 399.45355224609375 400.236907958984375 398.19866943359375 399.03558349609375 413.71795654296875 421.05755615234375 416.804901123046875 416.118011474609375 395.896331787109375 375.770721435546875 362.439544677734375 328.935791015625 290.0302734375 255.7952728271484375 260.170501708984375 277.217742919921875 286.898956298828125 265.808380126953125 246.5602264404296875 238.3803863525390625 243.6399993896484375 264.517547607421875 291.307159423828125 314.943634033203125 325.095489501953125 328.041717529296875 326.208709716796875 319.21234130859375 310.44195556640625 302.8372802734375 298.365570068359375 293.9190673828125 287.4031982421875 282.52435302734375 275.002044677734375 260.269317626953125
599.41693115234375 633.42071533203125 634.45025634765625 612.06732177734375 577.6654052734375 517.3870849609375 473.0498046875 435.50091552734375 396.7469482421875 379.070068359375 367.07843017578125 333.55206298828125 298.953887939453125 254.601287841796875 231.20343017578125 212.25897216796875 198.795562744140625 190.7448883056640625 185.2554779052734375 184.367431640625 184.421722412109375 184.3885498046875 183.9775848388671875 183.96221923828125 186.0954132080078125 190.3095703125 203.33355712890625 214.220916748046875 220.7896728515625 229.4934539794921875 239.9920501708984375 252.0475616455078125 264.682708740234375 275.172088623046875 286.65692138671875 296.928741455078125 299.406829833984375 304.31488037109375 322.95697021484375 337.01171875 351.757232666015625 370.350982666015625 391.9906005859375 414.581024169921875 439.33917236328125 454.445709228515625 471.01800537109375 480.323822021484375 488.547882080078125 504.070770263671875 519.6397705078125 532.69073486328125 560.1278076171875 587.85284423828125 619.82037353515625 674.41986083984375 719.68560791015625 762.234130859375 817.2470703125 841.302001953125 844.1536865234375 757.6761474609375 672.6907958984375 619.3009033203125 581.444580078125 568.90869140625 571.1593017578125 573.89031982421875 585.8184814453125 609.04345703125 647.3399658203125 685.599365234375 723.261962890625 734.53887939453125 692.89263916015625 626.028564453125 531.9622802734375 471.63031005859375 437.728668212890625 429.981658935546875 428.57513427734375 428.745025634765625 429.335693359375 430.855712890625 432.2069091796875 431.11737060546875 434.05389404296875 437.665863037109375 439.643798828125 438.06396484375 436.39495849609375 439.20318603515625 439.60797119140625 434.382415771484375 419.57342529296875 390.941070556640625 375.640899658203125 377.672515869140625 382.97149658203125 386.132537841796875 392.8951416015625 396.328826904296875 398.431396484375 401.16748046875 387.800140380859375 367.850311279296875 349.287872314453125 321.310882568359375 279.47479248046875 240.422454833984375 234.2613372802734375 243.2464141845703125 250.6344146728515625 233.04010009765625 221.1587677001953125 220.784637451171875 242.2559661865234375 274.75067138671875 307.96246337890625 332.112030029296875 337.8907470703125 338.89520263671875 334.8118896484375 328.17791748046875 320.94775390625 313.240234375 308.74542236328125 305.56182861328125 301.864288330078125 299.441253662109375 292.468658447265625 277.798187255859375
569.89263916015625 590.59600830078125 585.81097412109375 567.97271728515625 547.16180419921875 510.1590576171875 473.488555908203125 437.899627685546875 389.614532470703125 354.865997314453125 330.59588623046875 300.518951416015625 274.35272216796875 244.2081298828125 231.4079132080078125 215.0808563232421875 198.4712371826171875 190.16156005859375 185.54827880859375 182.677459716796875 182.3458251953125 182.5887908935546875 183.0529327392578125 183.4113311767578125 184.924041748046875 189.927642822265625 202.429779052734375 215.1531829833984375 228.4353179931640625 242.507659912109375 252.8064422607421875 265.430908203125 278.866302490234375 283.66400146484375 293.925750732421875 306.230316162109375 307.534698486328125 316.756805419921875 339.07745361328125 353.216766357421875 364.652862548828125 379.980682373046875 396.987548828125 414.307861328125 431.597259521484375 440.521209716796875 454.19146728515625 464.865203857421875 473.20745849609375 483.477325439453125 492.64593505859375 503.244293212890625 533.30010986328125 565.02178955078125 598.07989501953125 647.74700927734375 692.6500244140625 735.9117431640625 786.264892578125 801.44586181640625 781.9080810546875 680.90362548828125 607.07843017578125 550.8065185546875 523.552001953125 516.37713623046875 516.1334228515625 522.25677490234375 534.6907958984375 558.99151611328125 602.23779296875 639.34326171875 685.56756591796875 731.1531982421875 718.44976806640625 659.3873291015625 556.3824462890625 494.401763916015625 453.297027587890625 437.377410888671875 433.38763427734375 430.04046630859375 427.9227294921875 428.59222412109375 434.17694091796875 444.123291015625 452.44866943359375 456.141326904296875 452.82305908203125 446.492523193359375 434.4652099609375 420.213836669921875 411.913543701171875 404.604644775390625 392.7110595703125 374.63385009765625 362.55780029296875 355.814544677734375 355.43115234375 355.160980224609375 358.242340087890625 368.632415771484375 376.53656005859375 382.266082763671875 375.752044677734375 352.664276123046875 325.298828125 294.895111083984375 261.23089599609375 229.72161865234375 212.0196380615234375 211.0958709716796875 205.1410369873046875 194.809173583984375 193.5218353271484375 212.6417236328125 255.7554931640625 291.350250244140625 321.446258544921875 345.773895263671875 350.33685302734375 348.52142333984375 340.550201416015625 333.64862060546875 328.159027099609375 323.452606201171875 322.1749267578125 322.96923828125 323.9349365234375 321.847900390625 313.86724853515625 301.37506103515625
530.713623046875 545.31689453125 545.87890625 532.646240234375 510.8575439453125 480.94171142578125 456.553619384765625 425.034698486328125 379.040863037109375 340.17022705078125 309.593963623046875 284.987701416015625 266.478851318359375 246.2798919677734375 234.168914794921875 218.902099609375 199.5798797607421875 190.6039276123046875 188.4523468017578125 185.2744598388671875 183.6388397216796875 182.8021240234375 182.598724365234375 183.4384918212890625 184.898895263671875 189.42950439453125 202.1240386962890625 216.0918731689453125 231.9323883056640625 249.5863189697265625 259.57574462890625 271.08123779296875 284.5679931640625 290.0126953125 299.9271240234375 312.5828857421875 316.91583251953125 323.713623046875 339.679718017578125 352.770050048828125 361.584930419921875 379.941619873046875 397.656768798828125 412.876708984375 428.143798828125 435.14990234375 442.743133544921875 451.488037109375 461.6351318359375 474.333160400390625 484.480224609375 499.0601806640625 527.5545654296875 555.1712646484375 586.908447265625 631.187255859375 670.0906982421875 715.65625 763.0584716796875 775.69158935546875 729.92083740234375 620.48828125 564.26019287109375 524.94171142578125 509.4605712890625 506.204132080078125 493.860748291015625 487.7650146484375 497.965972900390625 528.01953125 580.70703125 617.49908447265625 665.96112060546875 719.48468017578125 726.32794189453125 684.8653564453125 580.18878173828125 509.458526611328125 468.4556884765625 450.13079833984375 448.277587890625 444.021148681640625 438.22869873046875 436.81298828125 443.16412353515625 461.3634033203125 473.9930419921875 478.053375244140625 467.5283203125 449.962615966796875 426.002044677734375 398.138824462890625 386.30267333984375 385.594085693359375 375.129241943359375 357.66229248046875 346.69781494140625 338.99530029296875 336.379608154296875 337.0992431640625 341.56439208984375 349.808013916015625 356.03515625 366.73382568359375 360.98260498046875 334.48297119140625 300.50927734375 262.67095947265625 236.7062835693359375 213.2801971435546875 191.3870086669921875 186.2646636962890625 180.3635101318359375 180.67694091796875 190.3003082275390625 217.5774688720703125 266.399993896484375 302.95733642578125 327.550048828125 349.040130615234375 353.920166015625 350.54473876953125 344.472686767578125 339.049530029296875 334.323944091796875 329.73663330078125 329.60394287109375 331.9642333984375 336.277374267578125 337.0108642578125 332.044891357421875 321.089263916015625
484.327392578125 493.476104736328125 494.8929443359375 489.220184326171875 471.300811767578125 441.74505615234375 421.553466796875 394.632720947265625 353.504425048828125 319.33172607421875 296.454864501953125 277.8121337890625 264.48046875 250.21429443359375 237.34515380859375 222.822296142578125 203.3752593994140625 194.7608642578125 192.854339599609375 188.941986083984375 186.5275421142578125 184.8709259033203125 183.0864105224609375 183.5735931396484375 185.3306884765625 188.7698974609375 200.723968505859375 215.028594970703125 230.6082000732421875 250.4766082763671875 263.13092041015625 273.812255859375 289.821197509765625 298.443359375 304.956573486328125 314.60894775390625 320.260345458984375 324.0919189453125 334.8858642578125 345.71490478515625 354.363037109375 375.69647216796875 392.472198486328125 406.026275634765625 420.873321533203125 429.14398193359375 436.658721923828125 443.596435546875 452.281982421875 465.487518310546875 477.0224609375 497.138519287109375 530.84393310546875 558.978515625 587.57818603515625 624.63604736328125 653.64599609375 694.89239501953125 740.74493408203125 750.07745361328125 683.04022216796875 576.42828369140625 527.0889892578125 502.013427734375 492.953277587890625 492.93975830078125 476.351287841796875 471.442657470703125 485.105010986328125 513.95587158203125 560.83990478515625 600.18023681640625 646.405517578125 705.4532470703125 724.488037109375 706.962158203125 615.1943359375 539.27740478515625 494.38336181640625 471.7000732421875 469.0303955078125 464.864501953125 457.424163818359375 459.457733154296875 467.702850341796875 489.785430908203125 500.2117919921875 499.178375244140625 475.458221435546875 444.71600341796875 412.23162841796875 377.22186279296875 366.67584228515625 369.5889892578125 360.95733642578125 342.408111572265625 330.21417236328125 324.611358642578125 320.60699462890625 321.80615234375 328.74444580078125 333.6798095703125 335.8426513671875 343.993804931640625 331.266571044921875 301.626953125 266.6636962890625 233.8959808349609375 215.021759033203125 200.3135986328125 176.10382080078125 164.25299072265625 159.956787109375 174.0343780517578125 197.2174530029296875 228.2691650390625 274.6109619140625 309.2161865234375 332.085906982421875 350.600006103515625 354.54461669921875 350.728607177734375 346.52099609375 342.66790771484375 339.565704345703125 337.4779052734375 339.2559814453125 342.311676025390625 345.918731689453125 347.087982177734375 343.987701416015625 334.591552734375
426.1810302734375 430.674713134765625 426.048248291015625 417.204864501953125 406.17938232421875 383.673736572265625 365.802001953125 352.1170654296875 327.140899658203125 305.656097412109375 294.34698486328125 277.741058349609375 266.142913818359375 253.495697021484375 241.219085693359375 228.56671142578125 214.8578948974609375 208.99627685546875 204.57977294921875 197.830108642578125 192.415191650390625 187.2524261474609375 183.5117950439453125 184.4973907470703125 185.854888916015625 187.9766387939453125 196.651123046875 210.3519134521484375 225.8523712158203125 245.3685760498046875 258.96875 271.049713134765625 290.54071044921875 300.18890380859375 305.37890625 311.57257080078125 314.6287841796875 317.93536376953125 326.505462646484375 334.25042724609375 345.633880615234375 368.956024169921875 382.908782958984375 394.395416259765625 404.88726806640625 412.80828857421875 424.7965087890625 434.923858642578125 444.910736083984375 462.46307373046875 480.6378173828125 505.412994384765625 540.17376708984375 567.2904052734375 588.87811279296875 622.31707763671875 650.77978515625 682.10662841796875 716.01727294921875 697.45428466796875 619.40521240234375 536.78662109375 494.40325927734375 478.474639892578125 467.139739990234375 458.402191162109375 444.156280517578125 453.23223876953125 479.883209228515625 514.97003173828125 558.9378662109375 598.8660888671875 639.18865966796875 698.97119140625 739.5050048828125 744.87994384765625 654.00091552734375 575.32513427734375 523.9351806640625 512.11260986328125 509.523681640625 505.45086669921875 492.365447998046875 496.3280029296875 509.295501708984375 533.85174560546875 541.96881103515625 530.9013671875 484.07806396484375 435.78216552734375 390.832489013671875 355.409759521484375 347.036285400390625 345.510009765625 342.55706787109375 326.806060791015625 316.8392333984375 315.3719482421875 313.966156005859375 312.970245361328125 314.3350830078125 311.585235595703125 309.2171630859375 306.482666015625 286.00396728515625 258.74774169921875 227.03460693359375 197.34930419921875 183.96453857421875 175.259307861328125 159.5866241455078125 151.072113037109375 153.465179443359375 180.711456298828125 211.164154052734375 245.940704345703125 285.5072021484375 313.1463623046875 334.912078857421875 347.754913330078125 350.32916259765625 350.628631591796875 350.21209716796875 347.47564697265625 345.5126953125 345.354949951171875 348.014007568359375 355.114898681640625 364.0413818359375 367.39141845703125 361.390472412109375 341.75982666015625
390.00738525390625 383.96612548828125 378.19439697265625 368.205352783203125 359.765594482421875 344.4449462890625 332.1890869140625 324.967864990234375 314.827484130859375 304.3487548828125 295.850982666015625 280.20452880859375 268.24822998046875 255.06402587890625 245.362945556640625 236.0689697265625 225.4813995361328125 219.4775848388671875 214.7353973388671875 207.30963134765625 200.3368072509765625 190.800537109375 184.6575927734375 185.673614501953125 186.30224609375 188.2714691162109375 194.9349517822265625 207.3649444580078125 222.507659912109375 241.1121978759765625 252.9522552490234375 266.30609130859375 284.522613525390625 293.3955078125 298.715972900390625 303.85675048828125 307.2830810546875 312.567779541015625 321.767974853515625 328.2127685546875 339.34228515625 358.684112548828125 370.0562744140625 381.074920654296875 393.77801513671875 403.857208251953125 420.38336181640625 434.24041748046875 445.774627685546875 465.100982666015625 490.71429443359375 520.67474365234375 552.31591796875 574.37322998046875 590.77288818359375 615.595703125 642.8563232421875 671.54486083984375 700.3883056640625 662.79071044921875 588.3349609375 514.98370361328125 475.179412841796875 454.796295166015625 444.414642333984375 437.231658935546875 432.286895751953125 446.839569091796875 471.96063232421875 508.37713623046875 556.97747802734375 598.68023681640625 644.093017578125 701.16925048828125 749.44061279296875 767.32611083984375 699.87945556640625 619.14898681640625 557.054931640625 537.1575927734375 535.3492431640625 534.4234619140625 531.56396484375 538.9178466796875 552.36065673828125 567.18792724609375 567.6063232421875 546.28692626953125 492.55560302734375 445.246826171875 399.29986572265625 353.892791748046875 336.1749267578125 331.824066162109375 331.47784423828125 322.34002685546875 316.61065673828125 313.870361328125 312.372772216796875 309.779510498046875 307.081268310546875 302.17919921875 301.944305419921875 289.0987548828125 257.47491455078125 232.6728668212890625 202.02362060546875 168.137481689453125 157.933807373046875 149.1544952392578125 141.007537841796875 140.7570037841796875 155.8411102294921875 194.10382080078125 224.10321044921875 258.453826904296875 296.433502197265625 317.990753173828125 335.10601806640625 345.431640625 347.41064453125 350.23736572265625 351.47674560546875 349.97088623046875 351.14935302734375 354.16131591796875 356.673370361328125 364.227935791015625 376.653228759765625 382.092681884765625 376.56951904296875 353.78668212890625
370.556732177734375 354.490692138671875 343.113861083984375 331.044830322265625 321.45355224609375 313.57659912109375 309.754150390625 306.292694091796875 303.290435791015625 299.32037353515625 292.35107421875 279.337188720703125 268.698394775390625 255.9308319091796875 247.9835052490234375 241.8576507568359375 234.948638916015625 229.9815216064453125 226.0890350341796875 216.86773681640625 206.291534423828125 192.125640869140625 185.4138031005859375 186.048919677734375 186.5860595703125 187.60467529296875 194.4813385009765625 206.72894287109375 220.460540771484375 237.04180908203125 246.6661224365234375 259.10247802734375 276.127838134765625 285.748779296875 289.344879150390625 295.193328857421875 301.508209228515625 309.373382568359375 318.054351806640625 323.67974853515625 332.319305419921875 347.01055908203125 357.26605224609375 367.0360107421875 381.74566650390625 395.87353515625 418.9476318359375 439.269775390625 457.38934326171875 477.847442626953125 501.786895751953125 530.3162841796875 558.10943603515625 576.8465576171875 593.9862060546875 614.91265869140625 637.246337890625 659.98187255859375 675.74310302734375 630.01019287109375 564.953369140625 494.799102783203125 460.532012939453125 433.8731689453125 419.652130126953125 418.92889404296875 423.773834228515625 443.5870361328125 464.936676025390625 500.953765869140625 554.00042724609375 592.2294921875 639.15582275390625 705.27850341796875 757.31817626953125 794.10015869140625 763.107666015625 691.12127685546875 629.0419921875 586.28155517578125 573.6907958984375 565.3590087890625 569.11773681640625 583.307861328125 602.93353271484375 612.4534912109375 601.4449462890625 566.8465576171875 507.3480224609375 462.2249755859375 424.903900146484375 378.15167236328125 352.56793212890625 343.18499755859375 336.156402587890625 325.57611083984375 319.086517333984375 314.063201904296875 310.67962646484375 307.69891357421875 303.647735595703125 299.6624755859375 303.14422607421875 281.931304931640625 235.9257965087890625 204.2849273681640625 172.5882415771484375 139.796875 131.79034423828125 126.396240234375 129.152984619140625 138.352996826171875 162.290740966796875 205.52398681640625 237.0735321044921875 269.095489501953125 305.594329833984375 325.047637939453125 337.307098388671875 346.107513427734375 348.868438720703125 352.435760498046875 352.70599365234375 352.4794921875 356.043975830078125 365.2467041015625 372.51434326171875 379.72198486328125 392.92938232421875 396.87396240234375 389.7310791015625 363.616973876953125
355.668365478515625 333.945098876953125 321.6533203125 313.134033203125 305.889739990234375 300.725830078125 300.444915771484375 297.98480224609375 292.482452392578125 288.420562744140625 281.1641845703125 270.62744140625 263.908111572265625 256.14697265625 250.6321258544921875 246.239532470703125 243.0020599365234375 240.2014312744140625 237.131439208984375 226.9836883544921875 212.268157958984375 194.647674560546875 185.8692779541015625 185.8513336181640625 187.60791015625 187.4381866455078125 194.1905670166015625 204.9523162841796875 215.6889190673828125 231.652862548828125 242.4245147705078125 251.961639404296875 264.19061279296875 271.386322021484375 272.498565673828125 286.532440185546875 300.95770263671875 313.530548095703125 319.868865966796875 322.43865966796875 325.248504638671875 334.147064208984375 344.539825439453125 355.406982421875 370.441009521484375 387.0528564453125 414.826904296875 438.987518310546875 465.371795654296875 493.460968017578125 509.36627197265625 529.21954345703125 553.5699462890625 568.9085693359375 585.2470703125 608.446044921875 629.3868408203125 654.1173095703125 641.191650390625 584.05316162109375 528.30780029296875 464.198089599609375 433.639068603515625 408.30419921875 400.74139404296875 409.7938232421875 418.320220947265625 437.1171875 457.979827880859375 492.453338623046875 549.15313720703125 592.9913330078125 636.442626953125 707.29376220703125 766.161865234375 822.61822509765625 835.6741943359375 787.4129638671875 724.198486328125 664.8544921875 646.4420166015625 639.0955810546875 640.154296875 651.7613525390625 668.2257080078125 669.42608642578125 651.62335205078125 616.51031494140625 558.05584716796875 513.31182861328125 476.246734619140625 427.30767822265625 400.97698974609375 386.907684326171875 375.72747802734375 356.195770263671875 338.9879150390625 323.4595947265625 312.804534912109375 310.940460205078125 310.26031494140625 310.505279541015625 303.9300537109375 273.78863525390625 208.9340667724609375 164.162139892578125 142.1358184814453125 119.1151123046875 109.98908233642578125 107.9139404296875 122.839874267578125 146.2146148681640625 174.427276611328125 216.900909423828125 253.1417083740234375 283.476409912109375 312.93096923828125 331.20111083984375 342.0982666015625 349.835662841796875 354.230377197265625 357.883087158203125 358.6962890625 362.818450927734375 369.727752685546875 384.7861328125 393.654327392578125 400.462921142578125 412.767913818359375 417.42010498046875 410.502471923828125 380.03814697265625
357.31207275390625 331.664276123046875 318.976470947265625 312.17681884765625 309.6873779296875 309.4415283203125 309.704132080078125 307.16650390625 295.016082763671875 284.435791015625 274.568328857421875 263.993316650390625 258.218994140625 252.8562774658203125 249.6014404296875 248.3096160888671875 249.3682098388671875 247.290069580078125 241.6666107177734375 228.8903961181640625 217.42523193359375 202.2413787841796875 189.951568603515625 188.61260986328125 189.04449462890625 188.8019866943359375 194.511627197265625 202.696014404296875 211.235198974609375 225.1360321044921875 235.8148040771484375 245.2249755859375 255.5104827880859375 261.134185791015625 264.955413818359375 283.181243896484375 300.56951904296875 315.68719482421875 321.986358642578125 323.50311279296875 325.9208984375 334.352294921875 343.449249267578125 353.847869873046875 366.74774169921875 381.981964111328125 409.780517578125 433.34234619140625 457.3607177734375 485.93511962890625 502.20294189453125 519.6962890625 545.30902099609375 563.11505126953125 578.0001220703125 599.40594482421875 617.06109619140625 641.646240234375 606.594970703125 546.87652587890625 500.582611083984375 445.871063232421875 413.3731689453125 390.1806640625 390.508941650390625 404.70416259765625 416.36956787109375 437.96820068359375 463.984039306640625 495.643096923828125 546.72515869140625 592.38482666015625 636.3194580078125 703.2220458984375 754.16253662109375 799.1185302734375 831.4920654296875 813.8131103515625 768.2652587890625 713.9556884765625 700.0491943359375 699.498291015625 695.368408203125 691.03704833984375 693.7655029296875 690.163330078125 678.57342529296875 653.83062744140625 605.24603271484375 567.06201171875 528.60784912109375 479.0596923828125 450.433197021484375 428.305419921875 412.729705810546875 384.01007080078125 362.09130859375 343.765472412109375 328.207916259765625 324.60272216796875 323.62933349609375 320.937103271484375 302.989349365234375 268.920562744140625 199.0785369873046875 151.9214935302734375 127.90435028076171875 109.84980010986328125 104.488555908203125 106.55153656005859375 126.4097747802734375 153.3213348388671875 184.0689849853515625 224.0831298828125 262.331085205078125 295.400665283203125 318.231536865234375 333.534149169921875 345.43304443359375 354.18780517578125 359.645538330078125 363.62664794921875 365.735992431640625 371.50714111328125 382.38861083984375 400.84783935546875 408.984954833984375 416.5736083984375 425.3818359375 430.190673828125 421.288787841796875 391.6571044921875
363.877899169921875 340.212127685546875 330.269500732421875 325.330474853515625 324.65655517578125 325.402557373046875 324.185760498046875 320.0577392578125 298.7822265625 282.7091064453125 271.229522705078125 259.311492919921875 253.3817596435546875 248.9221954345703125 247.08489990234375 249.537628173828125 254.133453369140625 253.53460693359375 247.331573486328125 234.2889404296875 226.2222747802734375 210.2332611083984375 193.729400634765625 190.924957275390625 190.736907958984375 191.148681640625 194.2087860107421875 199.6434173583984375 207.583740234375 220.09600830078125 228.2863006591796875 235.8617706298828125 244.2315826416015625 250.4337310791015625 261.05169677734375 283.713775634765625 300.646453857421875 315.9647216796875 324.286346435546875 324.87518310546875 329.2183837890625 339.91693115234375 348.185028076171875 358.5185546875 371.32928466796875 382.329315185546875 406.256439208984375 427.494354248046875 446.00689697265625 470.910736083984375 489.1043701171875 505.720794677734375 531.212890625 550.662109375 567.153076171875 589.618896484375 608.58135986328125 625.23974609375 567.19464111328125 511.17694091796875 469.47601318359375 428.26251220703125 398.529693603515625 378.98089599609375 383.5684814453125 396.63134765625 411.89617919921875 437.069671630859375 467.9908447265625 504.526824951171875 555.152587890625 595.930908203125 634.99395751953125 683.88800048828125 719.53564453125 759.42425537109375 804.29766845703125 807.7001953125 783.7425537109375 743.9969482421875 741.93133544921875 741.9781494140625 729.40643310546875 701.9658203125 682.82391357421875 671.23382568359375 665.374755859375 656.25128173828125 633.9197998046875 612.0860595703125 578.713623046875 531.806396484375 503.991119384765625 480.656463623046875 459.768951416015625 417.755157470703125 388.5174560546875 365.582305908203125 345.509613037109375 344.671173095703125 344.61297607421875 334.38165283203125 307.65972900390625 265.718231201171875 196.496337890625 151.786285400390625 119.89913177490234375 100.5497283935546875 98.42978668212890625 107.02765655517578125 133.344268798828125 160.904449462890625 193.0208282470703125 231.8897705078125 265.4599609375 297.557769775390625 321.833648681640625 335.362060546875 348.18377685546875 359.6617431640625 366.2161865234375 372.57550048828125 378.39013671875 383.522216796875 394.6444091796875 411.976470947265625 420.49298095703125 429.18524169921875 440.4163818359375 446.32080078125 433.7760009765625 401.24774169921875
384.62298583984375 361.097015380859375 355.118865966796875 353.19464111328125 353.051727294921875 350.764862060546875 344.71343994140625 332.99798583984375 303.252716064453125 283.431610107421875 266.837127685546875 252.17437744140625 248.114501953125 244.551239013671875 244.664886474609375 251.771820068359375 258.523162841796875 259.26300048828125 255.5744171142578125 247.1535491943359375 238.206878662109375 221.8038330078125 201.50390625 194.0665435791015625 194.2607421875 194.7201385498046875 195.933746337890625 198.1144256591796875 203.307891845703125 212.7818450927734375 218.685699462890625 224.49407958984375 232.8751220703125 240.482696533203125 254.6013031005859375 279.9287109375 297.97808837890625 315.9906005859375 330.4942626953125 333.83551025390625 340.663177490234375 352.971649169921875 361.754913330078125 370.338409423828125 381.130218505859375 389.861480712890625 408.795684814453125 424.672332763671875 439.71612548828125 457.972259521484375 474.012115478515625 490.290496826171875 512.01611328125 526.4200439453125 542.02557373046875 563.7757568359375 586.24163818359375 582.8892822265625 516.6483154296875 473.7713623046875 432.967132568359375 398.6549072265625 375.69354248046875 362.274505615234375 371.21978759765625 388.2847900390625 409.1165771484375 438.72943115234375 466.129791259765625 502.475616455078125 554.024658203125 590.62872314453125 619.6680908203125 649.87335205078125 670.11114501953125 709.77093505859375 766.61260986328125 791.75244140625 784.177490234375 754.71697998046875 747.15667724609375 733.757080078125 705.34234619140625 670.0291748046875 642.14923095703125 614.8402099609375 603.77911376953125 603.5819091796875 606.0308837890625 607.4107666015625 601.54315185546875 582.13568115234375 561.89239501953125 543.8531494140625 511.798248291015625 460.583770751953125 430.4559326171875 405.619781494140625 380.92010498046875 377.949066162109375 372.061370849609375 352.998443603515625 325.055267333984375 278.71942138671875 201.8790283203125 150.47674560546875 112.5738067626953125 91.95269775390625 94.383056640625 106.042633056640625 135.0794219970703125 162.481964111328125 193.5302581787109375 235.2850494384765625 264.36328125 291.52056884765625 321.8828125 339.5906982421875 355.15045166015625 370.756927490234375 378.94830322265625 385.756103515625 396.7581787109375 406.172821044921875 416.642425537109375 430.45440673828125 438.45404052734375 442.2335205078125 456.8555908203125 462.2384033203125 451.95477294921875 420.6434326171875
401.6044921875 381.26361083984375 377.037506103515625 376.4176025390625 374.343841552734375 366.176666259765625 354.823944091796875 338.5189208984375 308.337646484375 286.536468505859375 265.546966552734375 247.9842376708984375 244.96099853515625 241.360137939453125 243.8726959228515625 252.0131683349609375 257.09893798828125 259.50604248046875 259.481414794921875 254.409393310546875 245.0058135986328125 231.329437255859375 211.2974700927734375 201.3967437744140625 198.7600860595703125 197.0356597900390625 197.5837554931640625 199.519866943359375 202.7067718505859375 209.211761474609375 214.210784912109375 218.740997314453125 228.1685638427734375 237.7751617431640625 249.6525421142578125 273.3214111328125 293.96405029296875 313.130584716796875 332.029876708984375 342.218414306640625 351.214019775390625 366.514862060546875 377.4818115234375 384.613189697265625 393.170989990234375 401.16278076171875 415.42852783203125 426.31402587890625 441.350250244140625 460.352294921875 474.44390869140625 487.1790771484375 501.2030029296875 509.310516357421875 523.08837890625 543.21630859375 560.05755615234375 540.36297607421875 480.304840087890625 445.93597412109375 412.6842041015625 378.469268798828125 358.650146484375 348.026458740234375 357.267425537109375 376.988006591796875 399.13818359375 435.48199462890625 465.782745361328125 498.256805419921875 539.3828125 564.689453125 577.226806640625 604.611083984375 633.03912353515625 675.5445556640625 729.3892822265625 754.801025390625 753.30438232421875 736.9581298828125 720.05670166015625 699.11334228515625 663.0023193359375 629.200439453125 603.79486083984375 568.4326171875 553.034912109375 556.70721435546875 565.3277587890625 571.8785400390625 577.1307373046875 580.15203857421875 578.8115234375 573.9010009765625 543.27288818359375 487.29791259765625 454.23858642578125 437.93701171875 418.995269775390625 408.010894775390625 390.57452392578125 363.37823486328125 334.964752197265625 295.670257568359375 209.439178466796875 145.9426422119140625 108.00243377685546875 87.86944580078125 92.35135650634765625 104.369049072265625 129.9021759033203125 157.06170654296875 185.2851104736328125 227.2169036865234375 260.299835205078125 288.51580810546875 322.7821044921875 346.84930419921875 365.822235107421875 385.335052490234375 396.3350830078125 402.797943115234375 412.531707763671875 422.941009521484375 432.786956787109375 444.112548828125 451.80120849609375 456.35577392578125 471.3370361328125 473.80810546875 463.5374755859375 431.850982666015625
410.179443359375 400.220611572265625 395.310516357421875 392.4324951171875 387.1920166015625 374.54949951171875 360.327117919921875 344.6126708984375 312.70245361328125 286.594085693359375 264.702178955078125 245.5064697265625 240.4166412353515625 236.8239288330078125 241.9663543701171875 249.544342041015625 251.923431396484375 254.283416748046875 256.094329833984375 255.461181640625 249.526336669921875 238.3672943115234375 219.4622344970703125 208.1580657958984375 201.2145233154296875 198.00006103515625 197.771728515625 199.260284423828125 201.41192626953125 207.780181884765625 215.06646728515625 221.472686767578125 231.599700927734375 240.72235107421875 249.63671875 269.173614501953125 290.016448974609375 310.06793212890625 330.78509521484375 346.52099609375 360.4254150390625 379.96636962890625 392.30633544921875 400.907470703125 409.69091796875 417.526092529296875 428.994873046875 436.47802734375 449.083770751953125 468.902130126953125 482.9171142578125 491.03204345703125 498.783050537109375 502.80126953125 511.5355224609375 525.52874755859375 530.052001953125 503.64617919921875 453.289764404296875 420.3218994140625 396.986114501953125 364.566497802734375 344.32537841796875 334.20703125 344.31561279296875 363.461517333984375 382.41644287109375 413.05511474609375 442.989288330078125 474.82244873046875 513.908935546875 530.43280029296875 531.57061767578125 557.02716064453125 588.83245849609375 630.6998291015625 685.07464599609375 706.84234619140625 707.7125244140625 696.47418212890625 675.50341796875 650.9853515625 615.57586669921875 585.03778076171875 560.35089111328125 528.8131103515625 513.12322998046875 512.8037109375 525.6580810546875 538.269775390625 550.69659423828125 564.87249755859375 575.91961669921875 580.21820068359375 565.9544677734375 523.419189453125 489.53973388671875 475.714691162109375 451.75933837890625 426.787109375 397.29730224609375 358.474273681640625 326.427520751953125 295.526397705078125 204.724945068359375 138.79034423828125 102.78423309326171875 86.09844207763671875 90.3870086669921875 102.27465057373046875 122.52024078369140625 148.919921875 178.2755889892578125 220.071319580078125 257.870269775390625 291.756622314453125 329.256072998046875 357.198150634765625 381.128448486328125 402.957550048828125 414.680633544921875 422.63165283203125 430.766937255859375 440.303741455078125 449.7364501953125 457.399383544921875 462.650848388671875 469.374114990234375 482.43963623046875 484.921478271484375 476.557403564453125 447.772613525390625
406.219146728515625 413.911529541015625 411.243072509765625 403.56011962890625 393.448699951171875 375.467864990234375 359.172332763671875 345.603607177734375 312.5794677734375 284.774383544921875 263.870513916015625 242.6064605712890625 234.097381591796875 231.096221923828125 236.4243621826171875 241.850189208984375 244.57110595703125 247.220916748046875 249.8415374755859375 250.4378204345703125 245.8959808349609375 236.3174285888671875 220.5580291748046875 210.4552764892578125 201.8227386474609375 197.699920654296875 197.72265625 198.6233673095703125 200.719390869140625 207.25689697265625 217.3426666259765625 228.3973236083984375 240.9071197509765625 249.94647216796875 259.51873779296875 274.627899169921875 290.708740234375 310.14190673828125 331.93292236328125 349.10552978515625 367.74224853515625 390.3826904296875 403.570220947265625 416.801055908203125 428.98834228515625 435.317169189453125 445.802093505859375 455.31011962890625 466.3924560546875 485.42816162109375 496.826904296875 498.2601318359375 502.08697509765625 505.248992919921875 509.647308349609375 519.49298095703125 510.19525146484375 480.646453857421875 434.24932861328125 403.44873046875 385.111297607421875 357.67279052734375 338.370635986328125 326.93328857421875 333.774749755859375 347.68695068359375 362.51605224609375 378.819183349609375 397.20318603515625 421.3145751953125 456.472259521484375 470.884185791015625 480.863922119140625 521.737060546875 558.18792724609375 597.30853271484375 643.834228515625 660.0067138671875 659.7784423828125 647.23712158203125 630.91058349609375 604.94384765625 567.54132080078125 535.9307861328125 505.862335205078125 481.24481201171875 473.052001953125 474.7943115234375 493.8587646484375 510.76141357421875 530.444091796875 555.62353515625 573.52783203125 587.1629638671875 587.2388916015625 560.84332275390625 525.9276123046875 499.25640869140625 460.3544921875 423.479583740234375 384.669464111328125 337.70709228515625 301.118133544921875 261.986419677734375 176.9851226806640625 125.2321014404296875 92.99010467529296875 83.73274993896484375 89.9903411865234375 102.93260955810546875 120.897247314453125 144.2647857666015625 175.8992156982421875 219.991943359375 259.621826171875 301.46246337890625 344.52557373046875 368.56329345703125 394.701416015625 420.16009521484375 430.96209716796875 439.259979248046875 446.03277587890625 453.53070068359375 462.99615478515625 471.922149658203125 475.958984375 481.930633544921875 490.112060546875 491.407562255859375 485.567718505859375 469.225067138671875
402.77813720703125 421.5194091796875 422.291778564453125 408.4859619140625 390.853759765625 370.65460205078125 354.720367431640625 337.510833740234375 305.324951171875 286.0323486328125 266.842620849609375 242.69842529296875 229.1910858154296875 222.803741455078125 225.7454376220703125 230.9527130126953125 236.63958740234375 239.3199615478515625 241.19683837890625 240.094635009765625 234.4384002685546875 225.3729095458984375 214.673919677734375 207.806488037109375 201.5045013427734375 196.984527587890625 196.8270263671875 198.0317230224609375 201.8705291748046875 210.771636962890625 221.33050537109375 235.0142364501953125 253.0309295654296875 264.0455322265625 275.687347412109375 289.005218505859375 297.97344970703125 312.4580078125 336.004547119140625 354.170654296875 374.954132080078125 400.81219482421875 416.041229248046875 433.054290771484375 451.941009521484375 461.253814697265625 472.945068359375 485.420562744140625 497.295379638671875 512.12567138671875 518.0977783203125 518.94146728515625 521.19781494140625 520.90069580078125 520.3492431640625 525.4427490234375 504.2017822265625 469.432464599609375 423.303955078125 401.30047607421875 381.8602294921875 357.415252685546875 340.27874755859375 327.213714599609375 324.6527099609375 328.77911376953125 331.2442626953125 327.5975341796875 327.44256591796875 338.196533203125 368.634674072265625 390.493438720703125 418.030670166015625 468.56201171875 507.343109130859375 555.46978759765625 605.0787353515625 618.4500732421875 608.48614501953125 579.86572265625 563.42474365234375 538.513916015625 502.03656005859375 475.022735595703125 446.963531494140625 426.006103515625 424.457977294921875 433.406402587890625 459.508819580078125 483.331695556640625 510.158660888671875 546.416259765625 570.41192626953125 591.23883056640625 601.6270751953125 587.642333984375 543.62200927734375 485.1539306640625 415.559417724609375 375.306243896484375 329.13055419921875 278.545318603515625 249.303863525390625 200.3199920654296875 130.81488037109375 102.52298736572265625 82.53621673583984375 79.96746063232421875 88.57123565673828125 101.81366729736328125 125.9077301025390625 149.0012664794921875 184.2865753173828125 235.538421630859375 273.130401611328125 314.91156005859375 360.968231201171875 381.257232666015625 405.2608642578125 431.03619384765625 442.850494384765625 452.435577392578125 461.40362548828125 468.201690673828125 476.37176513671875 487.10113525390625 492.733642578125 496.523468017578125 501.730560302734375 503.724365234375 501.54559326171875 498.44366455078125
410.694671630859375 425.973724365234375 422.367095947265625 402.624359130859375 381.475494384765625 361.03680419921875 347.894439697265625 328.5142822265625 300.224945068359375 289.4866943359375 271.434417724609375 244.5461578369140625 227.7600555419921875 217.060516357421875 217.277374267578125 222.85205078125 231.523529052734375 234.1881103515625 233.70147705078125 231.61505126953125 225.6962127685546875 217.7881927490234375 210.9922027587890625 205.6791839599609375 200.7306976318359375 196.59637451171875 195.3556671142578125 197.2030029296875 202.4113311767578125 214.3428497314453125 225.8135528564453125 237.9692230224609375 258.66375732421875 273.697845458984375 286.126861572265625 298.709503173828125 305.93426513671875 315.35662841796875 336.87628173828125 357.309478759765625 377.18011474609375 405.54986572265625 426.381072998046875 444.516510009765625 466.338104248046875 480.30133056640625 495.209686279296875 509.090118408203125 523.96966552734375 536.45806884765625 536.77777099609375 539.847900390625 544.57080078125 544.56329345703125 546.95819091796875 543.9483642578125 516.7159423828125 474.16650390625 422.909912109375 406.7635498046875 389.158782958984375 366.77801513671875 350.483917236328125 333.03607177734375 319.37017822265625 317.41552734375 315.940032958984375 307.329986572265625 297.40679931640625 294.22772216796875 316.107696533203125 348.560546875 387.5474853515625 442.334686279296875 480.120758056640625 525.343017578125 569.9217529296875 582.38214111328125 569.89373779296875 539.95770263671875 516.81201171875 492.3499755859375 452.163177490234375 423.648712158203125 403.812896728515625 398.95599365234375 408.144989013671875 423.18804931640625 449.5006103515625 474.7255859375 501.041778564453125 538.469970703125 563.61273193359375 581.16400146484375 587.47100830078125 562.10565185546875 513.24072265625 446.705352783203125 364.99554443359375 324.601898193359375 279.33074951171875 227.7248382568359375 198.7447357177734375 154.8969879150390625 105.21619415283203125 87.40657806396484375 78.4948272705078125 78.9170074462890625 88.00597381591796875 101.371612548828125 130.038482666015625 159.3547210693359375 196.1801605224609375 250.05706787109375 288.317657470703125 320.379669189453125 361.583892822265625 386.504241943359375 408.543853759765625 432.837188720703125 447.141448974609375 457.898590087890625 466.22882080078125 474.1339111328125 483.184112548828125 496.5048828125 503.00982666015625 504.806915283203125 507.100799560546875 508.24090576171875 508.350555419921875 506.91497802734375
422.971832275390625 420.901580810546875 407.2237548828125 386.73760986328125 369.407440185546875 350.04376220703125 337.990753173828125 320.28271484375 296.430633544921875 286.426666259765625 270.800445556640625 243.5826568603515625 224.0435638427734375 212.0811004638671875 210.092376708984375 213.8306427001953125 222.541778564453125 223.8149871826171875 222.8646697998046875 223.4159088134765625 219.0128631591796875 212.2321624755859375 206.219970703125 201.4022674560546875 197.259429931640625 194.3697052001953125 193.6883697509765625 197.4542388916015625 204.2782440185546875 219.4275665283203125 233.673370361328125 245.2669525146484375 266.86651611328125 283.832305908203125 295.74188232421875 308.8154296875 318.400665283203125 326.58319091796875 343.084991455078125 361.57342529296875 380.229736328125 407.574371337890625 430.82940673828125 451.9677734375 478.34552001953125 497.359619140625 517.69580078125 531.375732421875 547.31170654296875 560.450927734375 560.43157958984375 566.83734130859375 574.46490478515625 575.52642822265625 580.213623046875 572.1282958984375 545.2957763671875 500.18878173828125 446.258209228515625 423.914154052734375 403.900726318359375 379.091217041015625 361.517486572265625 343.367095947265625 324.324188232421875 315.333160400390625 310.740142822265625 300.182861328125 289.73370361328125 282.240997314453125 292.248138427734375 318.399871826171875 352.458251953125 412.51959228515625 461.82806396484375 509.710296630859375 547.2413330078125 546.9483642578125 524.96759033203125 494.314239501953125 469.42889404296875 448.93780517578125 414.935943603515625 388.328125 371.39013671875 375.719329833984375 393.326385498046875 416.371246337890625 448.41986083984375 477.79791259765625 503.995819091796875 528.989990234375 544.63970947265625 554.98492431640625 558.03125 516.95855712890625 459.29345703125 398.300262451171875 319.516265869140625 269.9071044921875 229.1447906494140625 181.0699310302734375 149.393310546875 117.0539703369140625 87.97394561767578125 77.044708251953125 75.0662689208984375 78.251007080078125 89.63922119140625 105.25970458984375 137.954742431640625 175.31927490234375 214.42529296875 267.0552978515625 302.0902099609375 326.551055908203125 360.228759765625 384.90228271484375 405.63616943359375 429.627655029296875 447.122467041015625 460.692840576171875 467.706390380859375 475.76776123046875 486.06622314453125 501.3480224609375 510.430877685546875 514.62939453125 514.76080322265625 512.17034912109375 503.877471923828125 488.91204833984375
419.81219482421875 395.148406982421875 377.641021728515625 360.345611572265625 350.838134765625 330.665679931640625 316.47613525390625 306.188690185546875 287.04681396484375 272.34515380859375 260.102294921875 239.268524169921875 222.136505126953125 207.90167236328125 202.4489288330078125 202.6200408935546875 208.210296630859375 207.2639617919921875 207.230316162109375 208.7091522216796875 207.7350921630859375 203.704254150390625 197.2576751708984375 193.0742340087890625 190.2940826416015625 189.8344573974609375 193.289794921875 200.5400543212890625 211.3364410400390625 229.61480712890625 247.0902252197265625 264.71502685546875 287.5341796875 304.0091552734375 317.950592041015625 329.572113037109375 339.2977294921875 349.17694091796875 361.232208251953125 373.919097900390625 391.67962646484375 416.05230712890625 434.629638671875 457.761016845703125 487.7474365234375 509.73553466796875 538.51580810546875 558.40106201171875 574.8785400390625 586.596435546875 593.8436279296875 604.53045654296875 621.493896484375 631.0833740234375 635.969482421875 620.27301025390625 589.255859375 544.61041259765625 494.16241455078125 464.48663330078125 442.396942138671875 410.29339599609375 384.935028076171875 362.295196533203125 343.443267822265625 332.852203369140625 324.3939208984375 306.11029052734375 289.525299072265625 277.222503662109375 278.181427001953125 293.2264404296875 321.065093994140625 375.091583251953125 426.2406005859375 473.740081787109375 508.963531494140625 502.157958984375 477.32275390625 445.6287841796875 419.115142822265625 393.652099609375 368.47381591796875 352.497344970703125 346.65679931640625 362.138397216796875 384.612060546875 411.368865966796875 444.420440673828125 472.374176025390625 494.83624267578125 507.1341552734375 509.27532958984375 502.23785400390625 490.1290283203125 434.08294677734375 375.00213623046875 323.361724853515625 268.944915771484375 223.094635009765625 182.31671142578125 132.7816314697265625 101.5438232421875 80.21073150634765625 73.7797088623046875 71.22339630126953125 74.2423553466796875 84.9180450439453125 100.5542449951171875 123.54039764404296875 160.62176513671875 200.089141845703125 246.16583251953125 298.4915771484375 326.751495361328125 349.60992431640625 370.960296630859375 384.458587646484375 401.50042724609375 423.973968505859375 439.5377197265625 454.63372802734375 467.211822509765625 476.282440185546875 489.992645263671875 508.378875732421875 519.48065185546875 528.74951171875 530.61138916015625 525.4638671875 496.435333251953125 450.97540283203125
393.401641845703125 369.2362060546875 356.071563720703125 343.47784423828125 335.314666748046875 312.623077392578125 297.414459228515625 287.339385986328125 272.881805419921875 262.1768798828125 252.2984161376953125 238.6915740966796875 225.275787353515625 209.9213409423828125 202.407012939453125 200.175201416015625 198.6443328857421875 196.010284423828125 197.213623046875 199.25274658203125 198.833953857421875 195.8014068603515625 189.4707794189453125 185.9611663818359375 185.7157135009765625 188.570648193359375 196.6557769775390625 205.1363525390625 219.1073455810546875 241.15771484375 259.096221923828125 280.66900634765625 306.024383544921875 321.32647705078125 337.392669677734375 352.76324462890625 361.76226806640625 369.186309814453125 376.98748779296875 384.609649658203125 399.47857666015625 424.73553466796875 443.628204345703125 467.23358154296875 498.412384033203125 519.54583740234375 546.08026123046875 568.52362060546875 587.0025634765625 597.9349365234375 611.42999267578125 628.74310302734375 655.10186767578125 673.419189453125 678.85540771484375 651.91864013671875 616.5748291015625 574.47723388671875 526.4759521484375 495.671966552734375 469.17138671875 434.06683349609375 407.625701904296875 385.268096923828125 367.015777587890625 355.4365234375 341.584320068359375 318.533660888671875 298.488555908203125 281.4114990234375 271.725830078125 272.703826904296875 299.089324951171875 358.546722412109375 406.3114013671875 445.864593505859375 467.878662109375 456.7506103515625 436.872802734375 410.872955322265625 392.18194580078125 371.058074951171875 348.348388671875 334.4635009765625 333.461639404296875 354.530242919921875 381.266845703125 410.41162109375 442.07000732421875 459.82354736328125 467.23773193359375 464.305145263671875 458.9849853515625 448.721832275390625 426.061279296875 371.17047119140625 319.192657470703125 266.056854248046875 219.231842041015625 186.2628326416015625 149.9749755859375 106.9203033447265625 85.31504058837890625 71.13897705078125 70.53733062744140625 70.695587158203125 77.26148223876953125 95.51534271240234375 113.96526336669921875 144.027679443359375 188.2536163330078125 222.26849365234375 267.04913330078125 320.797882080078125 347.33447265625 368.06939697265625 385.609100341796875 394.649749755859375 405.926849365234375 422.810577392578125 435.11993408203125 449.743194580078125 466.4010009765625 477.575927734375 494.625579833984375 517.466796875 531.0899658203125 541.98370361328125 543.690673828125 530.16412353515625 488.66015625 427.623779296875
365.72308349609375 349.543914794921875 338.241485595703125 329.942840576171875 318.2430419921875 294.384307861328125 280.507049560546875 268.25732421875 257.136749267578125 253.1952667236328125 248.3253173828125 240.8922271728515625 230.3134918212890625 213.9542999267578125 204.88775634765625 202.4561004638671875 193.6361236572265625 186.9163055419921875 185.597137451171875 188.4503326416015625 189.673187255859375 188.7093963623046875 183.239044189453125 181.4903106689453125 183.616607666015625 189.479278564453125 201.5782012939453125 211.412261962890625 226.782745361328125 251.6536102294921875 270.79278564453125 293.298736572265625 323.408172607421875 341.344757080078125 356.9384765625 375.0574951171875 385.02581787109375 389.224456787109375 396.170074462890625 402.702972412109375 411.98883056640625 435.0738525390625 457.162139892578125 479.63525390625 510.388885498046875 532.8494873046875 556.74383544921875 575.62139892578125 592.93634033203125 603.24859619140625 616.55938720703125 635.5325927734375 666.84600830078125 693.806396484375 700.9041748046875 668.0462646484375 631.40594482421875 590.66845703125 546.59613037109375 520.762939453125 492.561553955078125 455.070892333984375 428.971954345703125 408.51702880859375 393.052947998046875 385.129730224609375 368.092926025390625 336.614501953125 311.44287109375 291.40338134765625 272.204681396484375 261.944732666015625 282.31585693359375 334.537353515625 377.72216796875 411.971649169921875 430.34490966796875 421.2557373046875 406.54449462890625 380.53509521484375 362.953826904296875 349.686431884765625 333.808868408203125 325.76959228515625 330.934814453125 351.996429443359375 375.203094482421875 398.554107666015625 424.189544677734375 434.2105712890625 433.643768310546875 417.664154052734375 397.60516357421875 379.302001953125 348.676483154296875 301.012542724609375 264.6864013671875 222.7918243408203125 176.1250152587890625 146.07354736328125 115.364501953125 84.19127655029296875 73.8980712890625 69.67508697509765625 71.625244140625 73.4211273193359375 80.538360595703125 103.59763336181640625 127.9252777099609375 162.610687255859375 211.5088958740234375 244.743682861328125 282.118927001953125 333.39031982421875 362.0196533203125 377.71160888671875 395.921844482421875 406.631591796875 413.61578369140625 424.7303466796875 436.272979736328125 450.1695556640625 467.512786865234375 482.93243408203125 501.8143310546875 526.71978759765625 543.07391357421875 554.4593505859375 554.22955322265625 525.7186279296875 474.90802001953125 406.481781005859375
343.729583740234375 330.83001708984375 321.1182861328125 315.06048583984375 302.185760498046875 281.562103271484375 269.44403076171875 259.117095947265625 251.2986602783203125 250.3062591552734375 249.182952880859375 243.2191619873046875 234.7376556396484375 220.1530914306640625 209.4989166259765625 202.2351531982421875 187.5666656494140625 176.1087493896484375 170.0927276611328125 173.3008880615234375 175.907196044921875 176.7911376953125 174.2497100830078125 178.633392333984375 185.877197265625 193.7822723388671875 208.9087982177734375 223.6130218505859375 238.913177490234375 264.085296630859375 286.538848876953125 306.95819091796875 341.43951416015625 366.544830322265625 383.370697021484375 403.170654296875 413.493499755859375 415.197967529296875 423.089019775390625 433.42401123046875 443.472076416015625 462.694976806640625 483.702667236328125 503.326263427734375 524.6724853515625 545.94580078125 565.8223876953125 571.096923828125 574.228759765625 586.19757080078125 603.14093017578125 618.05755615234375 640.804443359375 661.56927490234375 665.547607421875 649.05914306640625 627.0826416015625 598.203125 556.9951171875 531.1064453125 509.304290771484375 481.469390869140625 462.033538818359375 447.43585205078125 433.33355712890625 423.1510009765625 403.3153076171875 365.445159912109375 333.6339111328125 309.183685302734375 265.619293212890625 250.1129302978515625 270.530029296875 313.221649169921875 342.482666015625 358.30133056640625 371.0059814453125 371.5042724609375 370.09759521484375 357.40875244140625 340.719207763671875 326.676239013671875 305.795135498046875 305.359130859375 319.453826904296875 345.708038330078125 361.50238037109375 372.69720458984375 378.272003173828125 371.862457275390625 360.32073974609375 337.297515869140625 313.54315185546875 288.853118896484375 262.442840576171875 214.8352813720703125 180.6822509765625 158.124176025390625 121.78372955322265625 96.55426025390625 84.3350372314453125 72.148956298828125 68.998443603515625 71.939483642578125 73.80133056640625 77.9549102783203125 84.01312255859375 109.77777099609375 140.0874176025390625 172.707763671875 224.3568572998046875 262.67431640625 294.6204833984375 342.588104248046875 369.583465576171875 381.561492919921875 396.01104736328125 408.34332275390625 417.505035400390625 427.47088623046875 441.842498779296875 458.0972900390625 474.856292724609375 494.347137451171875 515.43939208984375 539.2724609375 556.25103759765625 564.9404296875 555.6485595703125 510.907196044921875 453.842864990234375 390.8753662109375
335.264312744140625 321.4930419921875 316.93890380859375 311.327667236328125 299.600799560546875 280.97515869140625 268.877532958984375 262.11328125 259.572174072265625 260.84466552734375 261.52972412109375 251.6908721923828125 239.7104339599609375 223.110382080078125 210.550750732421875 198.39727783203125 181.8615570068359375 168.096771240234375 160.26971435546875 163.596099853515625 167.870208740234375 169.01080322265625 169.066864013671875 176.2987213134765625 186.7859039306640625 197.5438690185546875 215.0276336669921875 232.712371826171875 250.3089599609375 274.53814697265625 297.171356201171875 319.924468994140625 354.557708740234375 380.72467041015625 401.016937255859375 418.43133544921875 428.354644775390625 435.82171630859375 447.269134521484375 458.7928466796875 471.22161865234375 486.76385498046875 503.2674560546875 523.49407958984375 543.1602783203125 559.77685546875 562.84246826171875 553.13763427734375 540.0556640625 551.8255615234375 571.41156005859375 585.07568359375 602.9150390625 616.19720458984375 620.105224609375 615.98065185546875 601.0936279296875 581.76568603515625 549.93524169921875 528.07220458984375 514.70513916015625 497.95745849609375 486.0462646484375 477.024627685546875 465.578338623046875 450.15771484375 426.99432373046875 383.934173583984375 348.40570068359375 318.78338623046875 259.804107666015625 237.2703094482421875 247.5842742919921875 285.506500244140625 310.463226318359375 324.77191162109375 337.583465576171875 338.847869873046875 335.340301513671875 326.5965576171875 316.837860107421875 304.380615234375 284.171630859375 288.826019287109375 303.267333984375 325.840972900390625 332.21502685546875 335.20452880859375 334.910491943359375 326.02117919921875 305.136688232421875 270.9798583984375 245.9426116943359375 217.6192779541015625 198.811981201171875 160.6579742431640625 131.23779296875 114.1676177978515625 91.15814971923828125 75.6864013671875 70.845794677734375 69.64617919921875 71.35457611083984375 74.89626312255859375 74.19635772705078125 79.69548797607421875 89.6458740234375 116.73456573486328125 144.214691162109375 176.847747802734375 228.8938446044921875 263.955291748046875 296.3245849609375 339.02496337890625 362.90667724609375 378.825225830078125 391.9334716796875 405.466888427734375 419.58758544921875 434.53094482421875 450.671112060546875 467.325958251953125 484.458038330078125 502.94842529296875 524.408447265625 546.7410888671875 559.4737548828125 561.0780029296875 540.578369140625 495.5399169921875 446.885528564453125 398.373748779296875
337.87713623046875 319.414764404296875 319.791748046875 315.37847900390625 305.447113037109375 293.760467529296875 283.951263427734375 276.55120849609375 273.737091064453125 276.403411865234375 277.72650146484375 264.685699462890625 249.7920989990234375 227.0621795654296875 210.11517333984375 195.60369873046875 178.2044830322265625 164.974395751953125 157.053314208984375 156.6232147216796875 160.383514404296875 160.899749755859375 165.971954345703125 175.6477813720703125 187.4964141845703125 201.0740966796875 219.9285888671875 238.0464324951171875 259.486175537109375 285.75 306.79058837890625 331.205322265625 363.4559326171875 386.06781005859375 408.82257080078125 429.1842041015625 440.071441650390625 453.926177978515625 471.738372802734375 484.38946533203125 498.767822265625 513.217041015625 523.18072509765625 542.79864501953125 564.99542236328125 574.8829345703125 556.7213134765625 529.8553466796875 504.32904052734375 516.65411376953125 535.22296142578125 549.2767333984375 562.2344970703125 567.7196044921875 571.42230224609375 579.20703125 569.75726318359375 553.33172607421875 530.2412109375 513.5960693359375 505.2532958984375 503.586029052734375 502.984344482421875 499.662750244140625 487.949127197265625 467.0283203125 437.3472900390625 390.355010986328125 352.7216796875 311.8675537109375 248.967529296875 221.803497314453125 219.3397369384765625 246.7330322265625 264.761016845703125 281.6473388671875 302.5570068359375 309.238494873046875 304 289.690032958984375 281.5556640625 269.3045654296875 257.02752685546875 269.1639404296875 285.28070068359375 301.915618896484375 298.2259521484375 287.30938720703125 273.441009521484375 266.325531005859375 246.525238037109375 215.02593994140625 196.271087646484375 172.3470458984375 148.5141143798828125 112.86890411376953125 91.391754150390625 79.00337982177734375 74.99542236328125 70.35243988037109375 67.69666290283203125 69.40886688232421875 73.2517852783203125 76.39841461181640625 75.46575927734375 82.2444000244140625 96.9669952392578125 125.9473724365234375 149.4842529296875 184.0072784423828125 234.653045654296875 262.055999755859375 291.004974365234375 326.070556640625 346.593475341796875 367.32879638671875 388.484649658203125 404.996856689453125 423.67901611328125 446.567962646484375 463.3231201171875 477.042694091796875 493.73974609375 509.492584228515625 528.75701904296875 548.28985595703125 555.1356201171875 546.66796875 515.082275390625 476.4229736328125 444.529510498046875 412.929595947265625
367.72235107421875 347.431396484375 342.081512451171875 333.081756591796875 326.468231201171875 324.522857666015625 319.16558837890625 314.10113525390625 308.675201416015625 306.804229736328125 299.339996337890625 278.230133056640625 261.106292724609375 231.778045654296875 209.8650970458984375 195.176910400390625 175.0035858154296875 162.3229522705078125 155.659088134765625 152.255279541015625 152.1489715576171875 150.56427001953125 161.0207672119140625 174.4611663818359375 188.13134765625 202.5705718994140625 222.3105621337890625 238.12091064453125 259.3551025390625 289.527679443359375 311.3253173828125 334.146759033203125 362.15338134765625 379.701507568359375 398.563690185546875 425.287872314453125 445.211212158203125 467.9356689453125 497.43487548828125 515.27764892578125 530.51788330078125 546.7449951171875 554.606689453125 564.6170654296875 577.49285888671875 577.140869140625 546.45489501953125 512.55926513671875 481.740509033203125 477.396820068359375 484.62603759765625 494.0264892578125 506.869110107421875 514.5059814453125 518.77691650390625 523.90045166015625 514.82794189453125 502.588226318359375 491.031280517578125 482.617950439453125 477.683197021484375 482.45245361328125 489.406524658203125 494.187957763671875 487.8656005859375 469.12530517578125 432.6510009765625 369.954986572265625 323.259307861328125 271.472900390625 211.974578857421875 185.22314453125 177.4538116455078125 198.2345428466796875 219.62420654296875 239.4603118896484375 251.9664306640625 252.3784027099609375 245.372161865234375 235.9152374267578125 232.8519134521484375 229.4925537109375 229.959136962890625 238.2311859130859375 247.2826385498046875 247.7204742431640625 237.173583984375 221.5209503173828125 202.6799163818359375 189.871490478515625 172.4569854736328125 148.547698974609375 134.101104736328125 126.0072479248046875 108.2177581787109375 82.2643280029296875 71.08779144287109375 64.28627777099609375 66.76074981689453125 68.87381744384765625 69.4575958251953125 69.7430267333984375 71.5879058837890625 74.7492523193359375 82.6657257080078125 93.481353759765625 109.97834014892578125 138.857025146484375 162.00799560546875 192.6302337646484375 238.4641876220703125 265.775299072265625 287.568817138671875 314.352081298828125 333.4473876953125 354.591644287109375 387.012786865234375 410.820648193359375 430.822784423828125 460.101043701171875 478.44683837890625 487.095458984375 500.25244140625 512.705322265625 526.46685791015625 534.45977783203125 528.25958251953125 511.0206298828125 482.76123046875 458.746307373046875 443.825714111328125 428.231658935546875
397.555511474609375 374.961151123046875 364.3663330078125 356.3092041015625 356.3209228515625 356.325897216796875 349.0833740234375 343.588775634765625 333.894805908203125 324.83831787109375 306.935333251953125 280.050933837890625 261.97052001953125 232.641021728515625 209.6379241943359375 193.3560943603515625 172.1715545654296875 160.46466064453125 153.6591949462890625 148.8885345458984375 145.6726531982421875 145.3951568603515625 159.468841552734375 173.46087646484375 187.73388671875 199.987030029296875 219.5319061279296875 236.4426727294921875 255.5884552001953125 284.2174072265625 305.845916748046875 324.35430908203125 349.61895751953125 368.37945556640625 386.160308837890625 414.869384765625 440.67596435546875 466.177764892578125 504.08642578125 530.03125 548.69921875 566.56414794921875 569.235595703125 567.009033203125 562.44683837890625 552.36236572265625 522.73828125 496.7113037109375 468.776214599609375 453.48724365234375 456.69970703125 455.79119873046875 458.2481689453125 466.436370849609375 475.404327392578125 480.46600341796875 472.985626220703125 465.068572998046875 455.5777587890625 450.39459228515625 451.19525146484375 458.003814697265625 464.49127197265625 471.93572998046875 463.1507568359375 442.157196044921875 411.23712158203125 343.607513427734375 286.28668212890625 237.294403076171875 186.2669677734375 163.171051025390625 156.285858154296875 166.9329986572265625 186.1681671142578125 208.333343505859375 215.960540771484375 211.0481719970703125 204.092132568359375 199.7800140380859375 197.3511199951171875 199.38275146484375 208.5080413818359375 213.6202239990234375 215.744110107421875 203.1875457763671875 186.4700775146484375 169.7968597412109375 155.1183319091796875 143.7344970703125 133.2659759521484375 121.07715606689453125 107.78029632568359375 97.5069122314453125 83.81339263916015625 69.96715545654296875 66.7042999267578125 65.61479949951171875 68.98548126220703125 72.706878662109375 74.89179229736328125 75.9345703125 76.59637451171875 78.45804595947265625 90.699188232421875 105.8641510009765625 121.929656982421875 151.67364501953125 177.86297607421875 202.20819091796875 243.8452301025390625 276.06396484375 298.493072509765625 327.86285400390625 348.311279296875 365.279998779296875 393.866302490234375 418.17095947265625 437.2940673828125 466.45068359375 483.404083251953125 491.089813232421875 499.526275634765625 508.025146484375 517.43719482421875 516.760498046875 500.38385009765625 479.0157470703125 460.5574951171875 450.956817626953125 444.1771240234375 435.071014404296875
420.37188720703125 398.64453125 387.362091064453125 382.600372314453125 387.670806884765625 382.966644287109375 372.314483642578125 364.574249267578125 350.00958251953125 331.917755126953125 305.709259033203125 272.09747314453125 251.75799560546875 229.0538482666015625 207.530792236328125 188.2913970947265625 168.492919921875 160.278961181640625 153.7275543212890625 147.368499755859375 140.605804443359375 141.3477020263671875 157.226318359375 171.394287109375 186.3331451416015625 197.9223175048828125 217.3083343505859375 233.8595428466796875 250.6172637939453125 275.382537841796875 294.945831298828125 311.929534912109375 336.307281494140625 355.6029052734375 374.2498779296875 403.506500244140625 433.026336669921875 463.442840576171875 505.105621337890625 532.27752685546875 552.3206787109375 568.12158203125 563.73663330078125 551.51751708984375 533.6446533203125 521.914306640625 498.55535888671875 476.389739990234375 449.00054931640625 426.35272216796875 425.240875244140625 420.37567138671875 422.1485595703125 427.86407470703125 433.331634521484375 431.8585205078125 426.113555908203125 425.680145263671875 422.87451171875 421.39190673828125 425.731689453125 432.29132080078125 436.39495849609375 443.599029541015625 429.99273681640625 405.40716552734375 379.29693603515625 315.768402099609375 257.344757080078125 212.0571136474609375 170.05108642578125 149.546295166015625 143.122772216796875 149.531036376953125 159.98663330078125 172.0103607177734375 169.08538818359375 165.893463134765625 165.8094940185546875 175.9034271240234375 175.0366973876953125 172.67431640625 173.6654815673828125 173.3520355224609375 171.2442626953125 160.300262451171875 151.165985107421875 140.1759033203125 128.7892913818359375 113.2020416259765625 101.11244964599609375 97.22144317626953125 89.62610626220703125 80.4251708984375 72.45166778564453125 65.82373809814453125 64.6095123291015625 65.7178497314453125 72.2082672119140625 78.99811553955078125 83.52629852294921875 87.313018798828125 90.35961151123046875 93.40695953369140625 106.32220458984375 121.802642822265625 137.608184814453125 166.74261474609375 195.4341888427734375 221.7592010498046875 258.771392822265625 289.3177490234375 316.76446533203125 352.010833740234375 375.540374755859375 392.989501953125 410.96807861328125 428.15216064453125 446.231353759765625 471.355987548828125 484.965362548828125 492.94989013671875 496.6776123046875 496.5611572265625 495.04443359375 486.5247802734375 468.343994140625 451.319122314453125 443.194854736328125 443.243865966796875 441.196868896484375 435.741455078125
429.601959228515625 418.2078857421875 412.867889404296875 410.876190185546875 415.453338623046875 401.264739990234375 383.072662353515625 367.053955078125 348.4010009765625 325.1951904296875 297.07550048828125 260.0853271484375 240.805908203125 219.9292755126953125 197.7574615478515625 180.344940185546875 164.1299285888671875 158.1437835693359375 152.535797119140625 144.197967529296875 136.479339599609375 137.3884735107421875 151.052215576171875 165.1723175048828125 178.675262451171875 193.82879638671875 216.0778045654296875 230.3400115966796875 245.6304931640625 264.932586669921875 279.037353515625 296.0897216796875 321.255401611328125 340.36932373046875 363.042266845703125 395.15972900390625 424.430877685546875 459.777862548828125 503.11639404296875 526.24249267578125 541.08013916015625 542.626953125 530.1783447265625 511.154632568359375 486.15911865234375 477.847991943359375 468.491943359375 452.187835693359375 430.607025146484375 403.76708984375 384.246612548828125 369.752471923828125 370.87322998046875 377.81640625 384.80517578125 385.13873291015625 378.66668701171875 374.5302734375 376.136932373046875 381.359588623046875 390.022705078125 402.342376708984375 403.075927734375 399.187255859375 379.545806884765625 361.564453125 335.02020263671875 283.821746826171875 237.001373291015625 195.4200286865234375 165.66522216796875 145.697845458984375 130.5029449462890625 125.51477813720703125 126.6451568603515625 126.6010284423828125 118.7924346923828125 118.275390625 121.08978271484375 135.2803192138671875 138.4531707763671875 132.815948486328125 122.69379425048828125 120.93207550048828125 117.748199462890625 112.7561187744140625 114.55179595947265625 114.22222900390625 110.63985443115234375 96.97924041748046875 83.8110504150390625 74.7743682861328125 70.60428619384765625 66.94577789306640625 65.33657073974609375 65.8918609619140625 65.3994293212890625 67.35533905029296875 75.6168060302734375 88.86232757568359375 101.16718292236328125 109.87248992919921875 113.37302398681640625 119.454864501953125 132.2774658203125 146.91107177734375 168.9049072265625 200.145782470703125 225.345001220703125 253.87799072265625 286.65576171875 307.6688232421875 336.49066162109375 375.1566162109375 399.738433837890625 418.5194091796875 432.40594482421875 443.20654296875 457.352996826171875 472.0050048828125 476.74847412109375 480.745513916015625 478.852142333984375 470.3839111328125 459.069488525390625 444.6722412109375 432.72393798828125 427.34808349609375 428.751495361328125 433.483673095703125 433.24578857421875 428.527923583984375
443.063690185546875 429.372222900390625 422.092071533203125 412.340606689453125 405.8367919921875 391.19171142578125 374.981201171875 357.091094970703125 338.18603515625 316.907012939453125 288.801727294921875 253.10089111328125 236.33819580078125 211.19439697265625 188.6976776123046875 176.2794036865234375 161.003509521484375 152.6551055908203125 147.7457275390625 138.5122222900390625 131.9934844970703125 132.2812652587890625 146.0710906982421875 161.4750823974609375 174.0807952880859375 189.57965087890625 210.5776824951171875 223.039642333984375 238.0865325927734375 258.8978271484375 273.65185546875 291.037353515625 315.075408935546875 332.206634521484375 353.91607666015625 390.519866943359375 422.090087890625 456.248626708984375 497.20111083984375 517.6185302734375 527.4208984375 517.5242919921875 499.161773681640625 481.318267822265625 457.742523193359375 445.8104248046875 437.00213623046875 422.047454833984375 403.3402099609375 381.874359130859375 360.7808837890625 343.49249267578125 339.22119140625 342.053009033203125 344.5966796875 347.53948974609375 345.53570556640625 344.641937255859375 351.07586669921875 359.0133056640625 364.6005859375 371.1019287109375 369.568267822265625 362.848480224609375 347.617950439453125 341.094146728515625 314.1865234375 264.14141845703125 226.8590545654296875 193.30767822265625 167.02996826171875 150.9138336181640625 132.1067352294921875 113.06549072265625 102.82016754150390625 93.979095458984375 88.2969818115234375 92.74942779541015625 97.751312255859375 106.3853302001953125 108.36655426025390625 101.461029052734375 89.1430816650390625 87.76439666748046875 91.96959686279296875 98.3765106201171875 102.67658233642578125 100.341522216796875 92.30542755126953125 81.396453857421875 72.73729705810546875 67.41017913818359375 66.44179534912109375 64.81424713134765625 64.2499542236328125 65.95963287353515625 65.76258087158203125 69.47298431396484375 80.93951416015625 97.73046875 114.81835174560546875 129.3911895751953125 133.66845703125 142.1006317138671875 155.539642333984375 168.2013397216796875 191.8371124267578125 227.599853515625 252.317626953125 277.32147216796875 305.772308349609375 321.969329833984375 344.650848388671875 378.61663818359375 401.42828369140625 416.70159912109375 431.158660888671875 442.160614013671875 455.622650146484375 464.534637451171875 463.52996826171875 461.57568359375 452.940032958984375 440.9937744140625 429.291046142578125 421.5875244140625 419.428558349609375 421.667022705078125 425.101776123046875 427.734375 427.187896728515625 422.31219482421875
452.91656494140625 434.665313720703125 421.33355712890625 402.935699462890625 385.742950439453125 367.988677978515625 355.42669677734375 341.798187255859375 324.337799072265625 307.74560546875 281.5086669921875 246.01666259765625 227.4083099365234375 202.40826416015625 182.5230560302734375 171.0001373291015625 156.379180908203125 146.98297119140625 141.5359954833984375 133.2836456298828125 127.94446563720703125 127.37633514404296875 140.0555877685546875 154.9491424560546875 169.5977935791015625 184.347930908203125 204.74176025390625 218.2938079833984375 231.3037109375 251.64599609375 268.75927734375 286.194091796875 312.2335205078125 332.577850341796875 352.565032958984375 388.937347412109375 420.465057373046875 449.264495849609375 487.689544677734375 508.084259033203125 516.5875244140625 499.07366943359375 473.80889892578125 453.096160888671875 427.98431396484375 413.468658447265625 401.742095947265625 388.86895751953125 370.64093017578125 347.700042724609375 329.700286865234375 314.33697509765625 310.644775390625 317.505340576171875 317.7733154296875 314.321624755859375 310.42156982421875 313.800140380859375 327.709869384765625 340.50274658203125 344.11468505859375 342.34234619140625 336.6982421875 328.977294921875 320.79840087890625 321.077850341796875 298.4085693359375 253.14776611328125 220.4003143310546875 193.0386199951171875 165.397430419921875 148.6635894775390625 129.6104583740234375 102.78455352783203125 87.11423492431640625 78.65302276611328125 72.49579620361328125 73.3600921630859375 75.66719818115234375 81.4748382568359375 84.23226165771484375 82.70220947265625 74.34340667724609375 72.36727142333984375 79.31204986572265625 90.0551605224609375 93.31745147705078125 87.2708282470703125 77.279510498046875 69.3048858642578125 64.3158721923828125 64.95952606201171875 66.07440948486328125 65.2819061279296875 64.57546234130859375 64.948394775390625 65.9481048583984375 74.01248931884765625 93.5941162109375 113.47592926025390625 131.02716064453125 145.94866943359375 151.771270751953125 162.15411376953125 182.232391357421875 200.11102294921875 221.71240234375 255.0063323974609375 278.609954833984375 295.59649658203125 318.28558349609375 335.243255615234375 352.534423828125 379.26361083984375 397.505889892578125 408.33404541015625 418.309356689453125 425.678619384765625 435.205108642578125 441.371337890625 439.709930419921875 436.5286865234375 429.314056396484375 419.896636962890625 410.50537109375 406.16943359375 408.349273681640625 414.54425048828125 420.897552490234375 423.194427490234375 422.224273681640625 414.5413818359375
452.2115478515625 424.804412841796875 403.5380859375 382.266510009765625 363.515350341796875 342.19952392578125 330.177886962890625 323.305450439453125 307.553680419921875 289.877716064453125 267.595367431640625 235.471282958984375 213.728179931640625 194.4199066162109375 175.367218017578125 159.8908233642578125 149.0187530517578125 143.117767333984375 136.740447998046875 129.01055908203125 123.11707305908203125 122.98030853271484375 134.887603759765625 147.8229827880859375 162.7870635986328125 175.52691650390625 195.090545654296875 212.4091033935546875 227.77813720703125 249.017578125 265.973663330078125 281.706298828125 307.79632568359375 331.8414306640625 356.131439208984375 392.5150146484375 419.402984619140625 442.484527587890625 469.464324951171875 484.726959228515625 490.615692138671875 474.83306884765625 452.5318603515625 426.216552734375 394.927520751953125 373.485626220703125 352.626373291015625 341.563201904296875 330.41424560546875 311.90313720703125 297.303558349609375 285.301177978515625 276.509765625 278.817962646484375 279.326019287109375 278.990966796875 279.3924560546875 287.74462890625 303.7574462890625 312.664520263671875 311.016571044921875 305.27215576171875 301.78826904296875 302.358795166015625 297.07550048828125 289.761871337890625 274.77734375 244.7579193115234375 214.1353607177734375 186.974517822265625 154.9567413330078125 132.185821533203125 113.08168792724609375 82.14972686767578125 68.06009674072265625 66.50475311279296875 66.4979248046875 64.62580108642578125 62.591724395751953125 64.5586395263671875 69.0395050048828125 72.37915802001953125 69.63964080810546875 75.00194549560546875 81.90972137451171875 82.66674041748046875 81.097900390625 75.48603057861328125 68.2832489013671875 65.133575439453125 63.55802154541015625 66.69454193115234375 69.0309295654296875 70.4639892578125 69.98382568359375 69.170074462890625 74.8250274658203125 87.53247833251953125 112.6076202392578125 135.686767578125 154.05889892578125 170.6575164794921875 183.4856109619140625 194.994415283203125 216.915283203125 240.7665863037109375 264.04376220703125 295.581512451171875 314.9366455078125 325.187591552734375 334.542449951171875 346.26800537109375 359.8431396484375 377.89398193359375 387.15130615234375 391.9581298828125 392.43267822265625 392.872222900390625 396.22064208984375 403.693267822265625 405.74212646484375 403.176300048828125 398.9317626953125 396.43072509765625 394.876556396484375 396.165191650390625 398.5833740234375 402.62579345703125 407.927337646484375 410.596893310546875 408.33447265625 398.632415771484375
